ncols         241
nrows         50
xllcorner     12693529.7874
yllcorner     3562696.06585
cellsize      155.156523
NODATA_value  -9999.000000
95.000	108.000	193.000	202.000	203.000	205.000	202.000	173.000	113.000	140.000	211.000	209.000	184.000	115.000	118.000	146.000	211.000	196.000	185.000	160.000	114.000	118.000	117.000	115.000	147.000	205.000	213.000	194.000	189.000	207.000	206.000	208.000	226.000	248.000	239.000	213.000	197.000	195.000	144.000	109.000	99.000	87.000	89.000	82.000	78.000	78.000	79.000	140.000	190.000	181.000	161.000	171.000	197.000	205.000	207.000	204.000	181.000	175.000	136.000	113.000	111.000	101.000	98.000	106.000	106.000	103.000	98.000	97.000	98.000	99.000	99.000	100.000	117.000	118.000	115.000	116.000	118.000	105.000	178.000	219.000	201.000	188.000	207.000	185.000	188.000	137.000	109.000	109.000	110.000	92.000	85.000	86.000	84.000	87.000	85.000	85.000	85.000	86.000	89.000	136.000	212.000	183.000	113.000	118.000	114.000	99.000	146.000	93.000	84.000	86.000	103.000	113.000	194.000	219.000	117.000	123.000	123.000	122.000	121.000	118.000	113.000	98.000	109.000	96.000	97.000	114.000	113.000	117.000	125.000	122.000	122.000	122.000	113.000	98.000	100.000	109.000	99.000	112.000	107.000	103.000	121.000	118.000	108.000	95.000	99.000	138.000	196.000	165.000	119.000	122.000	149.000	192.000	196.000	211.000	200.000	197.000	211.000	215.000	171.000	102.000	86.000	85.000	85.000	85.000	85.000	85.000	85.000	85.000	83.000	84.000	85.000	85.000	85.000	85.000	85.000	85.000	85.000	80.000	162.000	209.000	195.000	182.000	171.000	187.000	141.000	111.000	165.000	207.000	209.000	190.000	186.000	205.000	210.000	193.000	141.000	119.000	143.000	177.000	132.000	99.000	105.000	175.000	163.000	185.000	142.000	120.000	134.000	205.000	212.000	210.000	215.000	210.000	209.000	183.000	120.000	210.000	211.000	241.000	253.000	209.000	208.000	218.000	233.000	242.000	250.000	249.000	250.000	249.000	239.000	238.000	236.000	239.000	236.000	237.000	237.000	237.000	237.000	248.000	240.000	253.000	254.000
98.000	99.000	129.000	183.000	184.000	197.000	180.000	185.000	185.000	189.000	209.000	204.000	168.000	116.000	118.000	145.000	208.000	186.000	185.000	183.000	181.000	179.000	190.000	171.000	107.000	111.000	147.000	195.000	184.000	192.000	205.000	209.000	210.000	233.000	249.000	232.000	208.000	200.000	185.000	165.000	156.000	164.000	186.000	171.000	152.000	145.000	158.000	188.000	200.000	201.000	193.000	175.000	178.000	184.000	178.000	168.000	170.000	145.000	114.000	114.000	117.000	94.000	86.000	92.000	94.000	95.000	99.000	99.000	99.000	98.000	101.000	103.000	115.000	115.000	115.000	118.000	105.000	130.000	187.000	237.000	207.000	196.000	196.000	180.000	191.000	181.000	112.000	108.000	113.000	89.000	94.000	92.000	89.000	85.000	85.000	84.000	84.000	83.000	101.000	201.000	209.000	194.000	153.000	128.000	119.000	111.000	110.000	102.000	118.000	135.000	108.000	96.000	170.000	209.000	183.000	119.000	122.000	123.000	124.000	123.000	118.000	100.000	123.000	118.000	99.000	95.000	110.000	125.000	122.000	122.000	123.000	124.000	122.000	120.000	104.000	98.000	106.000	111.000	97.000	110.000	122.000	120.000	111.000	107.000	110.000	119.000	183.000	164.000	145.000	197.000	190.000	196.000	211.000	208.000	208.000	210.000	212.000	206.000	146.000	83.000	84.000	85.000	85.000	85.000	85.000	85.000	85.000	83.000	83.000	85.000	85.000	85.000	85.000	85.000	85.000	85.000	83.000	89.000	165.000	185.000	165.000	182.000	175.000	136.000	114.000	159.000	183.000	204.000	212.000	196.000	189.000	187.000	208.000	170.000	129.000	159.000	184.000	137.000	106.000	144.000	165.000	178.000	162.000	138.000	111.000	109.000	111.000	183.000	197.000	200.000	151.000	190.000	210.000	192.000	117.000	145.000	208.000	225.000	222.000	206.000	203.000	198.000	210.000	225.000	253.000	249.000	251.000	222.000	213.000	216.000	208.000	212.000	237.000	236.000	237.000	236.000	236.000	238.000	223.000	251.000	251.000
94.000	111.000	119.000	124.000	185.000	190.000	201.000	185.000	185.000	189.000	211.000	208.000	172.000	115.000	116.000	143.000	207.000	186.000	207.000	205.000	184.000	191.000	211.000	202.000	149.000	96.000	133.000	200.000	199.000	207.000	213.000	212.000	210.000	214.000	213.000	229.000	250.000	226.000	197.000	195.000	199.000	206.000	214.000	209.000	199.000	195.000	198.000	202.000	206.000	204.000	202.000	188.000	143.000	124.000	117.000	163.000	156.000	124.000	119.000	119.000	122.000	96.000	84.000	84.000	84.000	85.000	89.000	91.000	91.000	90.000	100.000	114.000	116.000	115.000	116.000	117.000	105.000	165.000	200.000	234.000	199.000	183.000	182.000	192.000	193.000	194.000	119.000	109.000	112.000	89.000	92.000	89.000	90.000	85.000	87.000	93.000	97.000	123.000	143.000	209.000	209.000	212.000	215.000	180.000	177.000	114.000	108.000	139.000	195.000	204.000	98.000	102.000	96.000	88.000	164.000	120.000	123.000	122.000	123.000	124.000	111.000	107.000	113.000	120.000	120.000	103.000	97.000	114.000	123.000	122.000	124.000	121.000	121.000	121.000	123.000	115.000	100.000	99.000	105.000	110.000	106.000	114.000	107.000	118.000	141.000	184.000	164.000	167.000	183.000	194.000	206.000	204.000	211.000	209.000	208.000	210.000	204.000	160.000	102.000	84.000	85.000	85.000	85.000	85.000	85.000	85.000	84.000	84.000	85.000	85.000	85.000	85.000	85.000	85.000	85.000	79.000	127.000	181.000	195.000	194.000	197.000	191.000	181.000	178.000	178.000	182.000	201.000	195.000	196.000	144.000	175.000	189.000	191.000	145.000	85.000	155.000	205.000	131.000	104.000	158.000	187.000	189.000	165.000	120.000	110.000	159.000	164.000	184.000	145.000	139.000	120.000	177.000	205.000	127.000	118.000	117.000	145.000	208.000	211.000	203.000	198.000	178.000	191.000	202.000	223.000	251.000	249.000	198.000	194.000	202.000	186.000	215.000	234.000	237.000	236.000	236.000	238.000	232.000	224.000	246.000	252.000
115.000	123.000	120.000	123.000	188.000	212.000	206.000	193.000	189.000	211.000	206.000	174.000	173.000	213.000	201.000	183.000	190.000	202.000	195.000	182.000	212.000	210.000	196.000	158.000	144.000	136.000	191.000	223.000	247.000	226.000	182.000	184.000	209.000	195.000	189.000	213.000	232.000	209.000	210.000	216.000	202.000	187.000	201.000	211.000	209.000	208.000	204.000	209.000	189.000	191.000	205.000	202.000	155.000	121.000	117.000	132.000	128.000	120.000	123.000	124.000	121.000	96.000	84.000	85.000	85.000	85.000	85.000	84.000	83.000	90.000	106.000	115.000	115.000	116.000	116.000	103.000	107.000	166.000	188.000	224.000	189.000	193.000	192.000	200.000	180.000	192.000	123.000	110.000	98.000	88.000	89.000	90.000	84.000	84.000	103.000	110.000	146.000	197.000	201.000	208.000	209.000	211.000	195.000	200.000	205.000	182.000	116.000	182.000	204.000	189.000	93.000	120.000	96.000	94.000	102.000	116.000	123.000	123.000	122.000	121.000	117.000	123.000	111.000	110.000	111.000	120.000	115.000	123.000	120.000	112.000	121.000	121.000	121.000	121.000	121.000	121.000	112.000	103.000	125.000	122.000	115.000	100.000	106.000	117.000	133.000	194.000	189.000	176.000	161.000	168.000	184.000	189.000	198.000	212.000	210.000	212.000	172.000	116.000	121.000	102.000	85.000	85.000	85.000	85.000	85.000	85.000	84.000	84.000	85.000	85.000	85.000	85.000	85.000	85.000	84.000	83.000	160.000	211.000	193.000	196.000	192.000	197.000	191.000	184.000	186.000	183.000	205.000	200.000	143.000	120.000	125.000	177.000	161.000	129.000	101.000	162.000	189.000	164.000	104.000	149.000	168.000	167.000	164.000	148.000	162.000	181.000	184.000	170.000	105.000	101.000	99.000	157.000	202.000	114.000	119.000	119.000	109.000	186.000	200.000	195.000	194.000	175.000	183.000	204.000	207.000	224.000	223.000	198.000	196.000	183.000	186.000	241.000	231.000	230.000	238.000	236.000	242.000	227.000	200.000	207.000	229.000
124.000	124.000	124.000	127.000	208.000	213.000	211.000	205.000	212.000	213.000	200.000	143.000	166.000	217.000	213.000	206.000	194.000	214.000	186.000	155.000	215.000	208.000	177.000	135.000	156.000	213.000	210.000	227.000	255.000	241.000	173.000	163.000	220.000	215.000	211.000	212.000	208.000	173.000	152.000	158.000	147.000	135.000	146.000	156.000	152.000	172.000	202.000	197.000	139.000	156.000	206.000	216.000	154.000	117.000	125.000	120.000	122.000	113.000	101.000	103.000	107.000	93.000	85.000	85.000	85.000	85.000	84.000	85.000	97.000	110.000	115.000	115.000	116.000	115.000	114.000	100.000	98.000	116.000	170.000	207.000	193.000	207.000	151.000	149.000	137.000	140.000	113.000	107.000	97.000	95.000	103.000	103.000	88.000	86.000	113.000	145.000	199.000	212.000	210.000	210.000	211.000	203.000	189.000	200.000	201.000	209.000	189.000	188.000	184.000	178.000	127.000	112.000	113.000	113.000	110.000	109.000	117.000	125.000	124.000	123.000	122.000	123.000	122.000	116.000	116.000	123.000	123.000	122.000	119.000	95.000	97.000	115.000	120.000	122.000	122.000	115.000	98.000	118.000	121.000	121.000	118.000	108.000	112.000	102.000	135.000	198.000	213.000	207.000	179.000	159.000	168.000	199.000	209.000	211.000	214.000	177.000	115.000	122.000	123.000	122.000	106.000	87.000	85.000	85.000	85.000	83.000	83.000	85.000	85.000	85.000	85.000	85.000	85.000	85.000	79.000	151.000	211.000	203.000	200.000	190.000	169.000	183.000	190.000	184.000	187.000	189.000	190.000	188.000	185.000	140.000	119.000	127.000	129.000	147.000	116.000	143.000	187.000	187.000	119.000	106.000	115.000	117.000	108.000	173.000	197.000	197.000	200.000	166.000	105.000	103.000	98.000	119.000	130.000	113.000	110.000	162.000	182.000	202.000	145.000	141.000	143.000	133.000	181.000	207.000	211.000	209.000	210.000	209.000	196.000	181.000	199.000	222.000	247.000	244.000	217.000	241.000	249.000	225.000	185.000	179.000	188.000
210.000	210.000	209.000	182.000	203.000	209.000	200.000	164.000	126.000	113.000	129.000	107.000	114.000	128.000	111.000	142.000	182.000	193.000	170.000	145.000	181.000	175.000	148.000	203.000	172.000	158.000	217.000	183.000	132.000	137.000	123.000	117.000	134.000	145.000	188.000	215.000	212.000	204.000	169.000	149.000	132.000	116.000	141.000	133.000	137.000	172.000	197.000	189.000	87.000	95.000	142.000	175.000	113.000	87.000	124.000	117.000	112.000	98.000	87.000	87.000	89.000	87.000	85.000	85.000	85.000	84.000	86.000	101.000	113.000	116.000	115.000	116.000	116.000	102.000	94.000	106.000	97.000	85.000	181.000	208.000	193.000	201.000	155.000	121.000	117.000	93.000	139.000	145.000	110.000	107.000	109.000	109.000	101.000	134.000	158.000	198.000	212.000	210.000	213.000	204.000	197.000	181.000	190.000	186.000	200.000	205.000	209.000	198.000	177.000	177.000	178.000	119.000	136.000	117.000	119.000	116.000	118.000	122.000	125.000	120.000	123.000	122.000	123.000	124.000	123.000	124.000	122.000	123.000	124.000	117.000	100.000	95.000	104.000	119.000	118.000	102.000	109.000	123.000	121.000	120.000	110.000	117.000	124.000	120.000	124.000	193.000	210.000	206.000	188.000	165.000	187.000	189.000	195.000	211.000	201.000	160.000	119.000	122.000	122.000	122.000	124.000	113.000	92.000	84.000	84.000	83.000	85.000	85.000	85.000	85.000	85.000	85.000	85.000	85.000	90.000	162.000	209.000	200.000	194.000	180.000	123.000	90.000	156.000	197.000	150.000	109.000	159.000	189.000	191.000	143.000	119.000	106.000	71.000	109.000	108.000	137.000	192.000	198.000	122.000	103.000	118.000	122.000	105.000	162.000	207.000	193.000	192.000	164.000	118.000	112.000	116.000	116.000	112.000	109.000	101.000	188.000	214.000	215.000	122.000	119.000	118.000	159.000	200.000	208.000	210.000	210.000	209.000	197.000	146.000	187.000	209.000	207.000	227.000	228.000	206.000	224.000	226.000	196.000	197.000	187.000	205.000
210.000	210.000	212.000	201.000	202.000	203.000	204.000	220.000	240.000	180.000	197.000	209.000	185.000	174.000	159.000	217.000	207.000	181.000	164.000	148.000	158.000	142.000	149.000	141.000	148.000	162.000	185.000	213.000	205.000	201.000	168.000	163.000	192.000	149.000	171.000	202.000	205.000	194.000	157.000	133.000	128.000	123.000	152.000	140.000	103.000	112.000	179.000	175.000	124.000	174.000	165.000	134.000	79.000	39.000	94.000	117.000	96.000	85.000	85.000	85.000	84.000	85.000	85.000	85.000	84.000	89.000	102.000	113.000	116.000	115.000	117.000	115.000	101.000	88.000	83.000	92.000	104.000	90.000	177.000	211.000	204.000	192.000	199.000	124.000	113.000	135.000	183.000	192.000	144.000	137.000	138.000	103.000	107.000	194.000	213.000	213.000	209.000	203.000	172.000	155.000	139.000	125.000	147.000	141.000	185.000	188.000	194.000	175.000	179.000	186.000	180.000	174.000	191.000	146.000	117.000	119.000	121.000	121.000	114.000	109.000	123.000	123.000	122.000	122.000	122.000	122.000	123.000	124.000	121.000	122.000	123.000	111.000	97.000	96.000	105.000	99.000	123.000	121.000	121.000	117.000	115.000	124.000	123.000	122.000	145.000	197.000	201.000	192.000	196.000	203.000	211.000	210.000	204.000	199.000	152.000	97.000	96.000	119.000	123.000	122.000	122.000	123.000	117.000	98.000	84.000	85.000	85.000	85.000	85.000	85.000	85.000	85.000	84.000	87.000	144.000	189.000	196.000	195.000	194.000	196.000	148.000	102.000	95.000	113.000	121.000	149.000	182.000	187.000	187.000	185.000	185.000	145.000	78.000	99.000	152.000	160.000	161.000	161.000	160.000	110.000	95.000	97.000	95.000	103.000	111.000	108.000	109.000	100.000	96.000	99.000	98.000	98.000	103.000	108.000	111.000	183.000	209.000	217.000	183.000	128.000	118.000	198.000	210.000	209.000	209.000	208.000	210.000	188.000	119.000	188.000	209.000	214.000	208.000	207.000	209.000	209.000	208.000	190.000	206.000	188.000	220.000
241.000	237.000	234.000	204.000	203.000	204.000	202.000	253.000	249.000	211.000	143.000	212.000	190.000	144.000	247.000	254.000	236.000	174.000	169.000	145.000	179.000	239.000	225.000	207.000	237.000	204.000	214.000	199.000	163.000	174.000	169.000	169.000	145.000	101.000	150.000	159.000	209.000	200.000	189.000	145.000	76.000	100.000	170.000	171.000	132.000	111.000	168.000	168.000	121.000	167.000	160.000	128.000	77.000	59.000	71.000	91.000	106.000	88.000	84.000	85.000	85.000	85.000	85.000	84.000	86.000	102.000	114.000	115.000	115.000	114.000	108.000	108.000	94.000	85.000	85.000	84.000	96.000	97.000	121.000	185.000	212.000	199.000	199.000	166.000	156.000	181.000	187.000	196.000	189.000	188.000	180.000	159.000	135.000	197.000	211.000	210.000	216.000	161.000	121.000	104.000	102.000	81.000	103.000	110.000	144.000	133.000	142.000	127.000	183.000	200.000	190.000	187.000	184.000	194.000	139.000	142.000	118.000	116.000	95.000	110.000	114.000	121.000	122.000	122.000	122.000	122.000	122.000	123.000	119.000	121.000	121.000	123.000	122.000	104.000	98.000	113.000	123.000	118.000	117.000	117.000	172.000	118.000	122.000	143.000	201.000	206.000	189.000	175.000	195.000	200.000	210.000	210.000	195.000	145.000	104.000	86.000	84.000	94.000	117.000	124.000	122.000	123.000	112.000	98.000	97.000	85.000	85.000	85.000	85.000	85.000	85.000	84.000	84.000	138.000	194.000	151.000	141.000	174.000	184.000	187.000	188.000	150.000	104.000	94.000	89.000	150.000	190.000	186.000	187.000	187.000	190.000	149.000	106.000	114.000	109.000	142.000	172.000	184.000	126.000	98.000	113.000	119.000	112.000	100.000	112.000	113.000	104.000	95.000	108.000	112.000	109.000	103.000	97.000	95.000	97.000	111.000	120.000	137.000	128.000	120.000	120.000	205.000	214.000	212.000	211.000	211.000	197.000	196.000	127.000	144.000	201.000	156.000	198.000	210.000	208.000	208.000	209.000	207.000	211.000	201.000	205.000
224.000	239.000	246.000	245.000	202.000	208.000	247.000	243.000	246.000	243.000	185.000	159.000	154.000	173.000	255.000	242.000	201.000	179.000	169.000	146.000	164.000	161.000	141.000	125.000	150.000	173.000	213.000	179.000	136.000	170.000	151.000	206.000	163.000	96.000	165.000	159.000	207.000	206.000	191.000	145.000	69.000	83.000	158.000	168.000	109.000	96.000	162.000	198.000	119.000	61.000	92.000	121.000	78.000	74.000	88.000	89.000	121.000	99.000	83.000	85.000	85.000	85.000	85.000	84.000	100.000	113.000	115.000	115.000	116.000	103.000	88.000	106.000	103.000	90.000	84.000	84.000	86.000	102.000	96.000	131.000	185.000	195.000	185.000	197.000	201.000	202.000	190.000	195.000	199.000	201.000	195.000	199.000	182.000	187.000	213.000	217.000	173.000	124.000	124.000	105.000	116.000	85.000	102.000	114.000	106.000	108.000	85.000	97.000	140.000	175.000	188.000	194.000	181.000	158.000	177.000	195.000	150.000	122.000	104.000	113.000	110.000	118.000	124.000	122.000	122.000	122.000	122.000	123.000	124.000	122.000	121.000	121.000	119.000	102.000	117.000	178.000	161.000	107.000	109.000	112.000	122.000	124.000	135.000	203.000	209.000	198.000	190.000	170.000	179.000	207.000	212.000	197.000	144.000	109.000	99.000	83.000	85.000	84.000	91.000	114.000	124.000	116.000	102.000	105.000	107.000	101.000	88.000	85.000	85.000	85.000	85.000	80.000	138.000	211.000	198.000	176.000	171.000	186.000	150.000	152.000	189.000	190.000	137.000	91.000	138.000	171.000	180.000	188.000	189.000	189.000	187.000	110.000	100.000	124.000	108.000	88.000	148.000	186.000	120.000	96.000	117.000	123.000	120.000	107.000	118.000	118.000	116.000	114.000	117.000	116.000	122.000	118.000	112.000	111.000	113.000	104.000	102.000	99.000	91.000	107.000	114.000	187.000	195.000	198.000	198.000	196.000	182.000	131.000	117.000	110.000	134.000	111.000	138.000	199.000	211.000	208.000	209.000	210.000	211.000	216.000	197.000
200.000	248.000	244.000	245.000	243.000	244.000	251.000	232.000	234.000	254.000	232.000	114.000	144.000	255.000	244.000	198.000	202.000	173.000	146.000	131.000	151.000	196.000	185.000	146.000	192.000	151.000	212.000	185.000	156.000	95.000	137.000	219.000	183.000	131.000	160.000	153.000	156.000	151.000	141.000	121.000	47.000	67.000	136.000	146.000	82.000	52.000	151.000	216.000	145.000	49.000	71.000	134.000	79.000	73.000	116.000	116.000	126.000	106.000	86.000	85.000	85.000	85.000	83.000	95.000	112.000	116.000	115.000	116.000	106.000	95.000	124.000	159.000	168.000	126.000	102.000	89.000	84.000	98.000	98.000	101.000	122.000	174.000	193.000	215.000	234.000	213.000	201.000	193.000	195.000	197.000	190.000	188.000	192.000	153.000	161.000	166.000	119.000	120.000	124.000	109.000	116.000	104.000	94.000	96.000	98.000	102.000	128.000	112.000	94.000	160.000	187.000	181.000	146.000	142.000	164.000	181.000	203.000	176.000	152.000	149.000	111.000	118.000	124.000	123.000	122.000	122.000	122.000	122.000	123.000	125.000	122.000	120.000	106.000	103.000	129.000	180.000	199.000	148.000	95.000	116.000	118.000	120.000	138.000	213.000	206.000	195.000	191.000	175.000	187.000	210.000	206.000	170.000	105.000	106.000	82.000	85.000	85.000	85.000	84.000	88.000	104.000	110.000	112.000	125.000	115.000	103.000	67.139	91.000	85.000	85.000	80.000	121.000	194.000	211.000	201.000	183.000	184.000	155.000	113.000	154.000	191.000	181.000	130.000	90.000	151.000	179.000	179.000	182.000	171.000	175.000	115.000	71.000	138.000	135.000	113.000	86.000	146.000	191.000	123.000	98.000	118.000	125.000	122.000	120.000	124.000	125.000	118.000	102.000	119.000	123.000	109.000	113.000	116.000	109.000	109.000	106.000	97.000	93.000	106.000	117.000	111.000	182.000	195.000	143.000	137.000	189.000	196.000	165.000	126.000	122.000	119.000	116.000	121.000	146.000	202.000	216.000	217.000	221.000	205.000	157.000	147.000
212.000	209.000	251.000	244.000	242.000	242.000	244.000	250.000	241.000	224.000	133.000	147.000	134.000	146.000	196.000	202.000	206.000	172.000	147.000	166.000	145.000	205.000	197.000	146.000	185.000	146.000	219.000	213.000	177.000	91.000	134.000	224.000	186.000	107.000	108.000	122.000	125.000	111.000	103.000	108.000	48.000	39.000	84.000	103.000	52.000	86.000	157.000	180.000	92.000	38.000	53.000	101.000	95.000	88.000	121.000	123.000	125.000	102.000	85.000	85.000	85.000	85.000	86.000	105.000	117.000	115.000	117.000	107.000	104.000	144.000	188.000	204.000	197.000	138.000	112.000	113.000	99.000	92.000	100.000	100.000	106.000	167.000	204.000	205.000	240.000	238.000	214.000	190.000	199.000	201.000	206.000	154.000	143.000	124.000	117.000	118.000	117.000	103.000	107.000	101.000	119.000	126.000	108.000	85.000	98.000	88.000	137.000	108.000	98.000	165.000	181.000	139.000	96.000	102.000	145.000	166.000	172.000	196.000	214.000	214.000	136.000	116.000	122.000	123.000	123.000	122.000	123.000	124.000	122.000	123.000	122.000	119.000	99.000	124.000	120.000	122.000	168.000	118.000	118.000	108.000	94.000	105.000	130.000	193.000	205.000	200.000	198.000	205.000	210.000	208.000	176.000	102.000	113.000	84.000	85.000	85.000	85.000	85.000	85.000	84.000	86.000	99.000	119.000	123.000	123.000	67.142	104.000	112.000	100.000	83.000	87.000	147.000	217.000	209.000	183.000	171.000	191.000	155.000	117.000	122.000	113.000	101.000	97.000	107.000	160.000	194.000	152.000	116.000	101.000	96.000	72.000	116.000	179.000	171.000	111.000	123.000	160.000	177.000	120.000	93.000	106.000	122.000	74.000	46.000	97.000	121.000	105.000	58.000	106.000	129.000	64.000	91.000	116.000	109.000	107.000	117.000	108.000	95.000	112.000	98.000	61.000	130.000	141.000	122.000	118.000	136.000	190.000	150.000	87.000	78.000	79.000	76.000	79.000	77.000	99.000	151.000	155.000	115.000	115.000	120.000	119.000
209.000	211.000	247.000	243.000	245.000	240.000	204.000	186.000	170.000	128.000	184.000	205.000	204.000	158.000	122.000	148.000	196.000	201.000	198.000	211.000	201.000	207.000	197.000	138.000	177.000	184.000	212.000	173.000	128.000	184.000	158.000	87.000	129.000	98.000	119.000	120.000	117.000	125.000	124.000	122.000	90.000	63.000	99.000	122.000	101.000	108.000	124.000	82.000	52.000	92.000	95.000	64.000	44.000	45.000	89.000	110.000	105.000	101.000	83.000	85.000	85.000	83.000	96.000	113.000	116.000	116.000	115.000	98.000	104.000	166.000	206.000	209.000	206.000	177.000	167.000	133.000	108.000	89.000	102.000	99.000	107.000	165.000	204.000	196.000	233.000	255.000	223.000	181.000	175.000	189.000	190.000	125.000	111.000	117.000	118.000	117.000	102.000	98.000	98.000	93.000	106.000	102.000	109.000	107.000	105.000	94.000	91.000	90.000	96.000	135.000	137.000	97.000	100.000	99.000	96.000	152.000	143.000	174.000	185.000	204.000	197.000	142.000	119.000	123.000	119.000	115.000	118.000	121.000	123.000	122.000	122.000	117.000	122.000	122.000	121.000	121.000	117.000	121.000	123.000	123.000	108.000	96.000	105.000	183.000	185.000	210.000	209.000	209.000	209.000	200.000	148.000	113.000	91.000	84.000	85.000	85.000	85.000	85.000	85.000	85.000	84.000	84.000	94.000	118.000	67.146	67.144	118.000	123.000	121.000	107.000	133.000	203.000	210.000	196.000	179.000	177.000	152.000	118.000	122.000	117.000	103.000	93.000	109.000	122.000	157.000	195.000	154.000	107.000	108.000	112.000	73.000	113.000	193.000	204.000	132.000	140.000	161.000	127.000	99.000	97.000	103.000	115.000	116.000	83.000	42.000	104.000	111.000	54.000	103.000	129.000	57.000	87.000	124.000	122.000	116.000	125.000	111.000	112.000	124.000	96.000	46.000	111.000	122.000	122.000	124.000	111.000	125.000	119.000	35.000	69.000	73.000	73.000	67.000	72.000	67.000	135.000	133.000	70.000	78.000	122.000	122.000
206.000	208.000	208.000	251.000	251.000	240.000	204.000	200.000	192.000	209.000	211.000	204.000	205.000	207.000	208.000	185.000	199.000	209.000	205.000	207.000	203.000	201.000	199.000	182.000	210.000	211.000	208.000	197.000	197.000	208.000	165.000	109.000	172.000	184.000	119.000	116.000	109.000	110.000	120.000	111.000	71.000	84.000	116.000	124.000	114.000	113.000	115.000	106.000	108.000	116.000	115.000	113.000	104.000	97.000	94.000	104.000	106.000	94.000	84.000	85.000	85.000	85.000	101.000	115.000	115.000	116.000	101.000	93.000	111.000	127.000	181.000	210.000	209.000	205.000	205.000	181.000	134.000	99.000	100.000	94.000	139.000	191.000	210.000	201.000	202.000	206.000	194.000	176.000	173.000	182.000	183.000	165.000	159.000	157.000	159.000	149.000	137.000	139.000	114.000	105.000	97.000	137.000	143.000	120.000	92.000	99.000	95.000	83.000	88.000	93.000	96.000	100.000	100.000	100.000	100.000	100.000	118.000	146.000	163.000	181.000	206.000	199.000	143.000	119.000	111.000	108.000	108.000	112.000	120.000	123.000	122.000	122.000	124.000	125.000	120.000	119.000	119.000	121.000	122.000	124.000	124.000	124.000	121.000	165.000	166.000	207.000	210.000	208.000	206.000	177.000	110.000	99.000	83.000	85.000	85.000	85.000	85.000	85.000	85.000	85.000	85.000	85.000	84.000	67.151	67.149	123.000	124.000	114.000	133.000	193.000	191.000	194.000	206.000	202.000	157.000	102.000	99.000	117.000	118.000	103.000	93.000	107.000	124.000	122.000	122.000	124.000	126.000	114.000	111.000	101.000	61.000	127.000	209.000	160.000	95.000	145.000	166.000	130.000	100.000	100.000	113.000	121.000	125.000	115.000	118.000	78.000	47.000	30.000	49.000	60.000	34.000	40.000	49.000	103.000	123.000	106.000	111.000	122.000	127.000	101.000	51.000	112.000	120.000	120.000	113.000	111.000	115.000	121.000	25.000	99.000	110.000	109.000	163.000	117.000	113.000	139.000	138.000	109.000	114.000	117.000	112.000
201.000	212.000	214.000	250.000	252.000	237.000	202.000	209.000	208.000	198.000	195.000	196.000	194.000	191.000	208.000	205.000	183.000	196.000	191.000	174.000	185.000	199.000	202.000	197.000	127.000	193.000	206.000	208.000	208.000	205.000	169.000	111.000	141.000	178.000	105.000	90.000	109.000	105.000	101.000	123.000	114.000	111.000	110.000	105.000	91.000	99.000	120.000	125.000	120.000	100.000	87.000	93.000	100.000	104.000	102.000	103.000	98.000	87.000	85.000	85.000	84.000	91.000	109.000	117.000	116.000	113.000	101.000	105.000	117.000	113.000	174.000	216.000	205.000	207.000	211.000	213.000	140.000	95.000	100.000	103.000	152.000	199.000	198.000	187.000	181.000	183.000	191.000	199.000	206.000	204.000	208.000	207.000	204.000	204.000	202.000	196.000	195.000	181.000	114.000	107.000	158.000	200.000	198.000	144.000	130.000	107.000	87.000	85.000	84.000	89.000	97.000	97.000	100.000	100.000	101.000	99.000	119.000	118.000	153.000	144.000	160.000	201.000	199.000	140.000	109.000	109.000	109.000	109.000	111.000	122.000	124.000	123.000	122.000	124.000	144.000	141.000	137.000	119.000	123.000	123.000	122.000	131.000	199.000	179.000	165.000	181.000	208.000	209.000	189.000	110.000	100.000	82.000	85.000	85.000	85.000	85.000	85.000	85.000	85.000	85.000	85.000	85.000	67.155	67.153	87.000	106.000	119.000	148.000	207.000	206.000	203.000	187.000	188.000	160.000	116.000	149.000	182.000	138.000	100.000	96.000	104.000	119.000	153.000	194.000	155.000	120.000	124.000	114.000	115.000	92.000	95.000	160.000	209.000	153.000	92.000	146.000	166.000	132.000	102.000	90.000	111.000	105.000	82.000	105.000	123.000	99.000	76.000	42.000	76.000	96.000	48.000	58.000	83.000	114.000	128.000	57.000	89.000	117.000	127.000	106.000	53.000	104.000	165.000	181.000	81.000	72.000	111.000	118.000	26.000	103.000	91.000	52.000	126.000	130.000	113.000	114.000	179.000	166.000	114.000	108.000	106.000
233.000	228.000	245.000	249.000	250.000	201.000	206.000	207.000	208.000	203.000	188.000	202.000	177.000	171.000	179.000	178.000	115.000	118.000	118.000	114.000	118.000	176.000	184.000	174.000	95.000	116.000	199.000	192.000	184.000	207.000	172.000	119.000	121.000	123.000	114.000	92.000	102.000	106.000	91.000	92.000	86.000	86.000	91.000	96.000	84.000	89.000	109.000	121.000	102.000	86.000	85.000	85.000	86.000	87.000	87.000	87.000	86.000	85.000	85.000	85.000	84.000	96.000	114.000	115.000	117.000	109.000	108.000	93.000	92.000	113.000	170.000	212.000	132.000	169.000	218.000	214.000	180.000	125.000	111.000	118.000	132.000	173.000	198.000	205.000	199.000	197.000	205.000	218.000	182.000	207.000	205.000	198.000	211.000	206.000	197.000	199.000	210.000	205.000	146.000	148.000	205.000	205.000	193.000	163.000	175.000	169.000	99.000	85.000	85.000	84.000	89.000	88.000	99.000	96.000	96.000	100.000	116.000	122.000	119.000	119.000	116.000	183.000	199.000	154.000	109.000	109.000	109.000	109.000	112.000	121.000	123.000	124.000	123.000	124.000	175.000	176.000	192.000	136.000	124.000	122.000	122.000	130.000	189.000	184.000	181.000	170.000	197.000	207.000	164.000	105.000	85.000	85.000	85.000	85.000	85.000	85.000	84.000	84.000	85.000	85.000	85.000	67.160	67.157	85.000	84.000	86.000	102.000	121.000	152.000	208.000	191.000	200.000	164.000	114.000	145.000	201.000	199.000	174.000	132.000	100.000	122.000	124.000	118.000	155.000	162.000	119.000	121.000	115.000	114.000	92.000	96.000	161.000	191.000	132.000	85.000	149.000	178.000	130.000	99.000	96.000	115.000	115.000	69.000	34.000	85.000	117.000	101.000	54.000	94.000	127.000	61.000	74.000	116.000	124.000	131.000	50.000	86.000	114.000	113.000	97.000	48.000	154.000	210.000	220.000	126.000	144.000	119.000	115.000	27.000	99.000	104.000	76.000	38.000	81.000	106.000	149.000	207.000	181.000	114.000	107.000	106.000
233.000	237.000	244.000	249.000	248.000	217.000	240.000	239.000	209.000	207.000	191.000	185.000	168.000	167.000	167.000	163.000	105.000	106.000	106.000	108.000	111.000	115.000	117.000	121.000	122.000	133.000	179.000	117.000	122.000	121.000	122.000	119.000	103.000	105.000	114.000	92.000	102.000	106.000	85.000	85.000	85.000	85.000	85.000	85.000	85.000	86.000	90.000	95.000	90.000	84.000	85.000	85.000	85.000	85.000	85.000	85.000	85.000	85.000	85.000	85.000	84.000	96.000	113.000	115.000	115.000	104.000	110.000	117.000	74.000	83.000	120.000	117.000	56.000	86.000	146.000	182.000	206.000	182.000	132.000	71.000	45.000	110.000	149.000	172.000	186.000	202.000	211.000	175.000	169.000	186.000	160.000	151.000	182.000	177.000	160.000	171.000	201.000	200.000	184.000	200.000	209.000	208.000	202.000	173.000	179.000	205.000	127.000	88.000	85.000	85.000	85.000	83.000	92.000	142.000	89.000	94.000	99.000	115.000	123.000	123.000	118.000	186.000	150.000	105.000	109.000	109.000	109.000	110.000	118.000	121.000	121.000	122.000	124.000	123.000	117.000	119.000	172.000	191.000	120.000	122.000	123.000	127.000	187.000	179.000	165.000	165.000	187.000	181.000	106.000	88.000	84.000	85.000	85.000	85.000	85.000	84.000	85.000	85.000	85.000	85.000	67.164	67.162	85.000	85.000	85.000	94.000	113.000	147.000	203.000	205.000	177.000	168.000	167.000	118.000	144.000	188.000	172.000	158.000	160.000	176.000	160.000	119.000	122.000	123.000	121.000	119.000	123.000	115.000	113.000	101.000	105.000	143.000	124.000	91.000	140.000	186.000	179.000	130.000	103.000	97.000	111.000	126.000	124.000	99.000	112.000	130.000	112.000	57.000	101.000	135.000	64.000	79.000	121.000	125.000	129.000	51.000	86.000	114.000	123.000	107.000	48.000	117.000	141.000	135.000	77.000	89.000	112.000	116.000	28.000	97.000	109.000	162.000	156.000	46.000	36.000	176.000	219.000	129.000	114.000	109.000	104.000
226.000	227.000	244.000	250.000	249.000	252.000	199.000	200.000	211.000	235.000	237.000	194.000	176.000	211.000	210.000	210.000	211.000	189.000	185.000	123.000	121.000	121.000	121.000	121.000	121.000	120.000	117.000	122.000	123.000	122.000	123.000	122.000	117.000	98.000	90.000	88.000	86.000	90.000	85.000	85.000	85.000	85.000	85.000	85.000	85.000	85.000	85.000	85.000	85.000	85.000	85.000	85.000	85.000	85.000	85.000	85.000	85.000	85.000	85.000	85.000	84.000	98.000	115.000	115.000	114.000	103.000	104.000	121.000	121.000	100.000	83.000	82.000	45.000	109.000	190.000	199.000	208.000	179.000	158.000	164.000	157.000	170.000	176.000	215.000	187.000	199.000	201.000	165.000	172.000	185.000	181.000	154.000	183.000	191.000	181.000	192.000	203.000	187.000	182.000	190.000	194.000	197.000	197.000	183.000	188.000	177.000	122.000	104.000	86.000	85.000	85.000	85.000	85.000	141.000	92.000	90.000	87.000	105.000	119.000	115.000	151.000	151.000	105.000	109.000	109.000	109.000	109.000	116.000	121.000	121.000	121.000	121.000	122.000	123.000	124.000	122.000	119.000	167.000	122.000	121.000	123.000	142.000	184.000	178.000	208.000	185.000	164.000	108.000	94.000	84.000	85.000	85.000	85.000	85.000	84.000	84.000	85.000	85.000	85.000	67.168	67.166	85.000	85.000	86.000	98.000	138.000	198.000	198.000	210.000	203.000	185.000	172.000	162.000	160.000	144.000	187.000	168.000	156.000	175.000	191.000	191.000	162.000	115.000	105.000	94.000	106.000	117.000	113.000	116.000	111.000	118.000	99.000	81.000	93.000	147.000	193.000	179.000	131.000	105.000	100.000	94.000	96.000	108.000	118.000	105.000	73.000	54.000	33.000	53.000	70.000	36.000	43.000	61.000	101.000	128.000	53.000	81.000	109.000	122.000	101.000	116.000	126.000	107.000	110.000	61.000	67.000	108.000	117.000	29.000	96.000	106.000	202.000	159.000	47.000	47.000	65.000	139.000	116.000	114.000	109.000	106.000
231.000	229.000	234.000	250.000	249.000	224.000	204.000	203.000	245.000	229.000	235.000	211.000	194.000	194.000	207.000	206.000	206.000	197.000	204.000	203.000	121.000	124.000	121.000	121.000	121.000	119.000	106.000	109.000	123.000	122.000	122.000	118.000	122.000	116.000	90.000	84.000	85.000	85.000	85.000	85.000	85.000	85.000	85.000	85.000	85.000	85.000	85.000	85.000	85.000	85.000	85.000	85.000	85.000	85.000	85.000	85.000	85.000	85.000	85.000	85.000	85.000	100.000	116.000	115.000	113.000	109.000	106.000	73.000	79.000	110.000	87.000	92.000	98.000	164.000	185.000	184.000	239.000	192.000	163.000	197.000	205.000	203.000	222.000	250.000	164.000	183.000	210.000	198.000	155.000	182.000	189.000	176.000	170.000	191.000	202.000	210.000	210.000	193.000	196.000	194.000	188.000	181.000	180.000	180.000	177.000	131.000	94.000	114.000	105.000	87.000	85.000	85.000	85.000	82.000	88.000	96.000	107.000	116.000	104.000	111.000	155.000	106.000	109.000	109.000	109.000	109.000	112.000	121.000	121.000	121.000	121.000	121.000	121.000	121.000	125.000	123.000	122.000	117.000	123.000	141.000	143.000	194.000	190.000	163.000	203.000	180.000	112.000	100.000	85.000	85.000	85.000	85.000	85.000	84.000	84.000	85.000	85.000	85.000	67.173	67.171	85.000	85.000	83.000	104.000	183.000	199.000	211.000	203.000	183.000	187.000	191.000	169.000	103.000	120.000	183.000	141.000	95.000	131.000	194.000	196.000	205.000	160.000	117.000	113.000	95.000	136.000	156.000	106.000	115.000	112.000	116.000	128.000	109.000	94.000	107.000	148.000	182.000	183.000	140.000	97.000	95.000	102.000	114.000	105.000	54.000	63.000	82.000	81.000	80.000	80.000	80.000	79.000	77.000	106.000	126.000	54.000	78.000	115.000	121.000	148.000	144.000	128.000	99.000	110.000	64.000	68.000	108.000	117.000	30.000	95.000	112.000	84.000	57.000	90.000	112.000	61.000	43.000	105.000	117.000	109.000	108.000
243.000	244.000	247.000	249.000	249.000	221.000	204.000	202.000	242.000	231.000	235.000	244.000	212.000	184.000	199.000	199.000	207.000	209.000	236.000	190.000	189.000	183.000	122.000	121.000	121.000	117.000	92.000	103.000	120.000	122.000	112.000	90.000	87.000	88.000	85.000	85.000	85.000	85.000	84.000	90.000	107.000	95.000	87.000	85.000	88.000	90.000	84.000	85.000	85.000	85.000	85.000	85.000	85.000	85.000	85.000	85.000	85.000	85.000	85.000	85.000	85.000	99.000	115.000	115.000	113.000	105.000	105.000	104.000	85.000	88.000	78.000	94.000	79.000	127.000	162.000	176.000	224.000	186.000	166.000	190.000	186.000	214.000	246.000	255.000	181.000	184.000	211.000	153.000	163.000	217.000	211.000	198.000	204.000	214.000	182.000	214.000	214.000	190.000	205.000	209.000	204.000	201.000	183.000	184.000	164.000	133.000	129.000	105.000	117.000	89.000	85.000	85.000	85.000	84.000	86.000	104.000	120.000	124.000	95.000	114.000	112.000	112.000	109.000	109.000	109.000	111.000	119.000	121.000	121.000	121.000	121.000	121.000	121.000	121.000	123.000	124.000	123.000	122.000	124.000	193.000	198.000	188.000	184.000	175.000	185.000	164.000	109.000	85.000	85.000	85.000	85.000	85.000	85.000	85.000	85.000	85.000	85.000	67.177	67.175	85.000	85.000	85.000	89.000	129.000	198.000	212.000	208.000	203.000	185.000	188.000	186.000	192.000	172.000	129.000	168.000	156.000	123.000	149.000	190.000	195.000	204.000	161.000	116.000	105.000	121.000	178.000	152.000	109.000	112.000	145.000	155.000	124.000	110.000	95.000	98.000	129.000	175.000	182.000	169.000	162.000	128.000	113.000	129.000	68.000	67.000	118.000	112.000	70.000	99.000	127.000	81.000	91.000	111.000	113.000	122.000	54.000	83.000	126.000	125.000	176.000	158.000	126.000	113.000	118.000	67.000	68.000	107.000	118.000	31.000	97.000	52.000	46.000	88.000	110.000	120.000	112.000	59.000	99.000	122.000	114.000	112.000
246.000	247.000	247.000	250.000	249.000	227.000	217.000	208.000	242.000	237.000	237.000	226.000	244.000	224.000	235.000	197.000	212.000	247.000	230.000	193.000	208.000	197.000	205.000	121.000	120.000	112.000	98.000	114.000	123.000	122.000	113.000	91.000	84.000	85.000	85.000	85.000	85.000	85.000	85.000	94.000	123.000	120.000	115.000	106.000	109.000	113.000	88.000	85.000	92.000	96.000	89.000	84.000	84.000	84.000	84.000	85.000	85.000	84.000	84.000	84.000	85.000	98.000	116.000	115.000	114.000	99.000	87.000	102.000	106.000	96.000	75.000	100.000	75.000	126.000	176.000	175.000	216.000	179.000	164.000	196.000	189.000	205.000	235.000	255.000	192.000	212.000	226.000	180.000	189.000	220.000	201.000	185.000	207.000	237.000	182.000	222.000	239.000	224.000	210.000	209.000	209.000	211.000	184.000	197.000	194.000	179.000	187.000	102.000	104.000	87.000	83.000	84.000	85.000	85.000	99.000	117.000	122.000	122.000	97.000	108.000	122.000	119.000	114.000	110.000	110.000	117.000	121.000	121.000	121.000	121.000	121.000	121.000	121.000	121.000	124.000	124.000	123.000	123.000	124.000	188.000	210.000	193.000	190.000	193.000	163.000	109.000	92.000	84.000	85.000	85.000	85.000	84.000	85.000	85.000	85.000	85.000	67.181	67.179	86.000	85.000	85.000	84.000	114.000	198.000	194.000	209.000	209.000	203.000	184.000	186.000	192.000	205.000	186.000	188.000	188.000	188.000	190.000	188.000	196.000	204.000	184.000	149.000	96.000	98.000	94.000	97.000	101.000	101.000	107.000	148.000	155.000	124.000	111.000	93.000	86.000	123.000	180.000	198.000	202.000	177.000	134.000	121.000	101.000	54.000	91.000	131.000	63.000	62.000	113.000	126.000	105.000	49.000	90.000	122.000	122.000	59.000	41.000	54.000	49.000	104.000	59.000	46.000	52.000	53.000	32.000	62.000	107.000	118.000	33.000	89.000	86.000	93.000	105.000	106.000	106.000	109.000	99.000	106.000	111.000	114.000	110.000
239.000	235.000	237.000	250.000	250.000	236.000	242.000	248.000	242.000	244.000	233.000	230.000	227.000	225.000	249.000	242.000	231.000	203.000	195.000	198.000	209.000	227.000	206.000	182.000	118.000	131.000	194.000	183.000	118.000	122.000	120.000	96.000	85.000	91.000	93.000	85.000	88.000	89.000	90.000	102.000	137.000	176.000	114.000	135.000	190.000	167.000	108.000	110.000	121.000	120.000	108.000	85.000	97.000	112.000	97.000	83.000	85.000	94.000	103.000	92.000	83.000	95.000	114.000	115.000	115.000	100.000	88.000	108.000	83.000	70.000	66.000	34.000	59.000	111.000	124.000	165.000	222.000	179.000	164.000	197.000	231.000	246.000	243.000	253.000	191.000	217.000	252.000	228.000	212.000	221.000	201.000	187.000	216.000	249.000	188.000	222.000	239.000	229.000	222.000	204.000	209.000	201.000	181.000	203.000	212.000	194.000	157.000	137.000	136.000	147.000	105.000	88.000	84.000	96.000	115.000	122.000	123.000	117.000	91.000	94.000	112.000	121.000	120.000	118.000	116.000	123.000	122.000	121.000	121.000	121.000	121.000	121.000	121.000	121.000	120.000	114.000	122.000	123.000	124.000	189.000	210.000	209.000	211.000	208.000	115.000	106.000	83.000	85.000	85.000	85.000	85.000	83.000	85.000	85.000	85.000	67.186	67.184	92.000	89.000	84.000	87.000	109.000	147.000	198.000	210.000	208.000	209.000	204.000	185.000	176.000	184.000	199.000	174.000	170.000	189.000	187.000	186.000	193.000	210.000	205.000	161.000	97.000	98.000	97.000	95.000	96.000	98.000	97.000	104.000	149.000	159.000	123.000	111.000	88.000	115.000	178.000	196.000	199.000	202.000	136.000	106.000	127.000	62.000	68.000	124.000	68.000	55.000	106.000	118.000	115.000	120.000	89.000	50.000	93.000	130.000	59.000	56.000	82.000	140.000	112.000	82.000	79.000	78.000	80.000	46.000	62.000	106.000	119.000	36.000	37.000	45.000	46.000	45.000	45.000	46.000	46.000	48.000	48.000	44.000	101.000	114.000
244.000	231.000	247.000	250.000	250.000	246.000	229.000	251.000	242.000	243.000	230.000	247.000	238.000	228.000	240.000	231.000	243.000	230.000	199.000	204.000	208.000	207.000	207.000	180.000	128.000	193.000	209.000	202.000	122.000	125.000	126.000	124.000	113.000	125.000	120.000	115.000	119.000	119.000	121.000	133.000	195.000	205.000	178.000	177.000	201.000	205.000	167.000	116.000	122.000	116.000	96.000	94.000	117.000	123.000	110.000	83.000	94.000	131.000	163.000	125.000	79.000	94.000	114.000	115.000	118.000	109.000	101.000	99.000	70.000	86.000	95.000	128.000	156.000	163.000	184.000	159.000	183.000	173.000	149.000	180.000	212.000	214.000	211.000	211.000	171.000	213.000	255.000	238.000	210.000	229.000	213.000	190.000	202.000	245.000	191.000	224.000	246.000	232.000	230.000	191.000	186.000	185.000	179.000	198.000	212.000	197.000	127.000	152.000	180.000	208.000	129.000	93.000	89.000	111.000	122.000	123.000	120.000	104.000	87.000	82.000	95.000	117.000	121.000	117.000	101.000	108.000	118.000	121.000	121.000	121.000	121.000	121.000	121.000	121.000	116.000	96.000	121.000	121.000	119.000	188.000	206.000	209.000	209.000	206.000	121.000	111.000	93.000	86.000	85.000	85.000	85.000	85.000	85.000	85.000	67.190	67.188	110.000	106.000	102.000	83.000	99.000	195.000	218.000	209.000	208.000	205.000	208.000	210.000	188.000	108.000	119.000	160.000	169.000	191.000	188.000	189.000	187.000	186.000	183.000	186.000	170.000	120.000	126.000	123.000	119.000	124.000	125.000	126.000	124.000	120.000	126.000	133.000	118.000	139.000	188.000	206.000	199.000	194.000	182.000	134.000	111.000	120.000	119.000	119.000	127.000	106.000	105.000	160.000	190.000	144.000	114.000	121.000	99.000	106.000	124.000	91.000	143.000	187.000	145.000	123.000	112.000	110.000	118.000	124.000	99.000	94.000	108.000	115.000	66.000	87.000	99.000	98.000	98.000	97.000	97.000	96.000	96.000	95.000	93.000	109.000	101.000
233.000	242.000	250.000	249.000	251.000	245.000	241.000	249.000	242.000	242.000	238.000	248.000	231.000	228.000	227.000	227.000	229.000	248.000	189.000	196.000	206.000	208.000	207.000	186.000	189.000	209.000	208.000	207.000	189.000	188.000	189.000	192.000	209.000	178.000	118.000	126.000	201.000	196.000	194.000	176.000	188.000	183.000	184.000	188.000	185.000	193.000	190.000	115.000	122.000	113.000	96.000	117.000	122.000	122.000	119.000	109.000	110.000	115.000	93.000	87.000	84.000	90.000	109.000	117.000	116.000	114.000	113.000	79.000	68.000	122.000	148.000	201.000	170.000	141.000	135.000	67.000	124.000	177.000	147.000	186.000	217.000	211.000	211.000	216.000	171.000	208.000	255.000	234.000	207.000	195.000	193.000	199.000	207.000	222.000	177.000	222.000	248.000	239.000	238.000	230.000	204.000	183.000	180.000	184.000	177.000	173.000	154.000	154.000	183.000	199.000	167.000	154.000	113.000	118.000	122.000	120.000	110.000	90.000	85.000	85.000	84.000	112.000	122.000	96.000	82.000	90.000	102.000	120.000	121.000	121.000	121.000	121.000	121.000	121.000	119.000	95.000	122.000	121.000	144.000	187.000	192.000	214.000	205.000	203.000	120.000	119.000	115.000	99.000	86.000	83.000	85.000	85.000	85.000	67.195	67.192	104.000	179.000	93.000	154.000	80.000	111.000	218.000	209.000	208.000	203.000	187.000	189.000	202.000	160.000	101.000	107.000	177.000	196.000	210.000	204.000	187.000	187.000	190.000	166.000	134.000	169.000	119.000	123.000	123.000	123.000	123.000	123.000	123.000	123.000	121.000	143.000	176.000	148.000	117.000	147.000	198.000	200.000	185.000	133.000	102.000	114.000	115.000	123.000	122.000	122.000	124.000	110.000	150.000	204.000	198.000	143.000	118.000	123.000	110.000	111.000	175.000	212.000	202.000	145.000	117.000	95.000	95.000	117.000	119.000	111.000	104.000	97.000	106.000	107.000	112.000	102.000	96.000	96.000	96.000	96.000	96.000	97.000	97.000	97.000	95.000	87.000
239.000	250.000	250.000	249.000	250.000	246.000	226.000	236.000	244.000	244.000	247.000	239.000	221.000	228.000	240.000	246.000	242.000	248.000	215.000	203.000	188.000	207.000	207.000	207.000	187.000	209.000	208.000	208.000	187.000	189.000	210.000	209.000	186.000	160.000	168.000	190.000	189.000	192.000	188.000	189.000	196.000	200.000	200.000	192.000	177.000	190.000	191.000	115.000	121.000	121.000	121.000	121.000	118.000	104.000	104.000	123.000	118.000	102.000	85.000	85.000	85.000	87.000	102.000	117.000	115.000	110.000	148.000	161.000	106.000	126.000	126.000	134.000	120.000	95.000	86.000	86.000	143.000	195.000	191.000	202.000	230.000	243.000	241.000	247.000	233.000	239.000	255.000	239.000	225.000	230.000	235.000	240.000	241.000	217.000	206.000	238.000	243.000	236.000	237.000	246.000	217.000	184.000	195.000	200.000	174.000	161.000	161.000	157.000	162.000	167.000	189.000	202.000	171.000	128.000	122.000	116.000	95.000	85.000	85.000	84.000	86.000	103.000	122.000	97.000	85.000	88.000	90.000	108.000	120.000	121.000	121.000	121.000	121.000	121.000	123.000	96.000	119.000	120.000	189.000	189.000	186.000	176.000	162.000	159.000	120.000	123.000	124.000	116.000	93.000	88.000	85.000	85.000	67.199	67.197	98.000	124.000	174.000	77.000	79.000	92.000	143.000	215.000	208.000	201.000	171.000	172.000	174.000	160.000	98.000	92.000	121.000	200.000	210.000	208.000	203.000	185.000	193.000	208.000	169.000	117.000	119.000	122.000	123.000	126.000	122.000	122.000	122.000	122.000	122.000	119.000	146.000	194.000	162.000	119.000	119.000	149.000	191.000	186.000	148.000	115.000	122.000	123.000	124.000	124.000	124.000	124.000	123.000	114.000	169.000	217.000	201.000	150.000	117.000	114.000	116.000	166.000	213.000	158.000	121.000	118.000	94.000	96.000	115.000	108.000	90.000	86.000	86.000	87.000	89.000	89.000	87.000	86.000	86.000	86.000	86.000	86.000	86.000	86.000	86.000	85.000	85.000
239.000	239.000	240.000	248.000	250.000	246.000	238.000	245.000	247.000	243.000	244.000	235.000	224.000	236.000	228.000	242.000	242.000	248.000	251.000	249.000	231.000	222.000	206.000	207.000	209.000	208.000	208.000	207.000	189.000	210.000	207.000	183.000	168.000	190.000	206.000	207.000	198.000	195.000	197.000	194.000	175.000	176.000	197.000	194.000	160.000	107.000	171.000	102.000	118.000	121.000	119.000	122.000	111.000	88.000	93.000	107.000	115.000	86.000	85.000	85.000	85.000	84.000	94.000	114.000	115.000	116.000	117.000	111.000	101.000	103.000	99.000	100.000	114.000	117.000	121.000	112.000	145.000	192.000	194.000	191.000	195.000	229.000	251.000	252.000	250.000	251.000	248.000	240.000	239.000	244.000	247.000	243.000	244.000	242.000	242.000	244.000	238.000	236.000	239.000	217.000	197.000	183.000	199.000	202.000	193.000	191.000	180.000	175.000	183.000	165.000	178.000	198.000	197.000	134.000	122.000	104.000	86.000	85.000	84.000	88.000	89.000	96.000	116.000	104.000	90.000	85.000	87.000	94.000	108.000	118.000	121.000	121.000	121.000	121.000	122.000	105.000	107.000	120.000	183.000	196.000	184.000	116.000	100.000	94.000	110.000	120.000	121.000	110.000	105.000	107.000	93.000	67.203	67.201	94.000	117.000	123.000	178.000	98.000	85.000	111.000	200.000	209.000	201.000	162.000	110.000	104.000	112.000	114.000	105.000	112.000	122.000	185.000	206.000	201.000	186.000	186.000	191.000	205.000	171.000	119.000	122.000	123.000	149.000	176.000	117.000	123.000	123.000	123.000	123.000	122.000	148.000	191.000	160.000	118.000	119.000	148.000	194.000	159.000	118.000	122.000	122.000	122.000	123.000	123.000	119.000	158.000	152.000	149.000	201.000	210.000	214.000	159.000	117.000	122.000	122.000	121.000	169.000	149.000	119.000	125.000	111.000	150.000	181.000	136.000	108.000	91.000	84.000	85.000	85.000	85.000	85.000	85.000	85.000	85.000	85.000	85.000	85.000	85.000	85.000	85.000	85.000
210.000	206.000	205.000	247.000	250.000	249.000	249.000	249.000	251.000	243.000	244.000	231.000	226.000	233.000	206.000	205.000	205.000	248.000	242.000	227.000	229.000	232.000	226.000	197.000	208.000	207.000	207.000	207.000	212.000	209.000	209.000	211.000	196.000	190.000	187.000	193.000	171.000	171.000	194.000	197.000	175.000	179.000	202.000	184.000	94.000	101.000	118.000	101.000	110.000	104.000	90.000	94.000	91.000	84.000	85.000	90.000	99.000	85.000	85.000	85.000	85.000	84.000	89.000	106.000	118.000	115.000	115.000	104.000	86.000	86.000	86.000	86.000	88.000	87.000	100.000	105.000	101.000	144.000	190.000	198.000	181.000	211.000	252.000	250.000	250.000	249.000	236.000	241.000	240.000	225.000	226.000	240.000	244.000	242.000	239.000	237.000	236.000	236.000	237.000	236.000	199.000	186.000	197.000	196.000	195.000	205.000	189.000	187.000	199.000	179.000	181.000	193.000	196.000	136.000	119.000	97.000	86.000	84.000	88.000	89.000	86.000	89.000	113.000	108.000	103.000	86.000	84.000	87.000	94.000	117.000	120.000	121.000	121.000	121.000	122.000	112.000	101.000	116.000	194.000	205.000	151.000	113.000	87.000	83.000	92.000	106.000	110.000	96.000	120.000	120.000	67.208	67.206	92.000	107.000	110.000	105.000	148.000	132.000	96.000	152.000	192.000	201.000	163.000	114.000	110.000	108.000	110.000	167.000	172.000	168.000	110.000	126.000	190.000	188.000	184.000	178.000	189.000	185.000	151.000	109.000	112.000	137.000	194.000	159.000	104.000	118.000	122.000	123.000	119.000	142.000	185.000	143.000	105.000	124.000	120.000	148.000	192.000	191.000	160.000	117.000	122.000	118.000	151.000	189.000	197.000	209.000	208.000	208.000	208.000	209.000	215.000	162.000	117.000	122.000	122.000	117.000	160.000	192.000	145.000	120.000	114.000	171.000	206.000	193.000	127.000	87.000	84.000	85.000	85.000	85.000	85.000	85.000	85.000	85.000	85.000	85.000	85.000	85.000	85.000	85.000	84.000
211.000	208.000	209.000	235.000	248.000	250.000	248.000	248.000	251.000	242.000	242.000	230.000	232.000	237.000	205.000	207.000	207.000	236.000	205.000	233.000	232.000	250.000	236.000	187.000	200.000	190.000	190.000	190.000	196.000	209.000	209.000	208.000	192.000	188.000	186.000	159.000	111.000	109.000	110.000	187.000	152.000	102.000	162.000	149.000	106.000	122.000	112.000	105.000	108.000	113.000	90.000	84.000	85.000	85.000	85.000	85.000	85.000	85.000	85.000	85.000	85.000	85.000	84.000	93.000	114.000	115.000	116.000	112.000	93.000	84.000	85.000	85.000	85.000	87.000	95.000	101.000	91.000	139.000	201.000	216.000	235.000	238.000	251.000	249.000	251.000	240.000	234.000	240.000	239.000	238.000	229.000	226.000	232.000	238.000	245.000	245.000	241.000	237.000	235.000	248.000	203.000	190.000	197.000	195.000	194.000	201.000	185.000	194.000	198.000	179.000	187.000	154.000	146.000	128.000	115.000	96.000	85.000	90.000	88.000	86.000	85.000	84.000	95.000	115.000	117.000	104.000	88.000	82.000	97.000	103.000	115.000	121.000	121.000	121.000	123.000	105.000	105.000	147.000	203.000	157.000	114.000	92.000	85.000	85.000	84.000	87.000	90.000	101.000	121.000	123.000	67.210	118.000	114.000	111.000	107.000	88.000	78.000	89.000	143.000	216.000	169.000	179.000	116.000	122.000	116.000	101.000	102.000	179.000	184.000	184.000	176.000	109.000	182.000	190.000	172.000	123.000	184.000	165.000	107.000	108.000	102.000	109.000	144.000	90.000	93.000	95.000	97.000	105.000	124.000	137.000	165.000	129.000	76.000	122.000	121.000	147.000	196.000	206.000	166.000	112.000	126.000	121.000	150.000	201.000	211.000	212.000	213.000	207.000	203.000	213.000	167.000	121.000	119.000	117.000	123.000	118.000	158.000	194.000	148.000	113.000	157.000	203.000	214.000	201.000	123.000	83.000	85.000	85.000	85.000	85.000	85.000	85.000	85.000	85.000	85.000	85.000	85.000	85.000	85.000	85.000	84.000
225.000	210.000	212.000	204.000	246.000	253.000	249.000	249.000	252.000	243.000	242.000	252.000	232.000	251.000	210.000	207.000	206.000	198.000	208.000	206.000	206.000	235.000	223.000	199.000	230.000	210.000	210.000	210.000	206.000	209.000	209.000	211.000	199.000	188.000	182.000	105.000	110.000	95.000	106.000	108.000	111.000	113.000	112.000	117.000	123.000	116.000	94.000	118.000	112.000	92.000	92.000	86.000	85.000	85.000	85.000	85.000	85.000	85.000	85.000	85.000	85.000	85.000	85.000	87.000	101.000	117.000	115.000	115.000	106.000	88.000	84.000	84.000	89.000	101.000	109.000	107.000	121.000	177.000	206.000	197.000	223.000	253.000	249.000	250.000	245.000	238.000	239.000	239.000	239.000	248.000	215.000	186.000	191.000	191.000	191.000	214.000	233.000	239.000	244.000	247.000	197.000	196.000	206.000	200.000	199.000	196.000	182.000	197.000	200.000	179.000	189.000	136.000	118.000	126.000	109.000	89.000	86.000	109.000	103.000	86.000	83.000	84.000	82.000	97.000	120.000	121.000	109.000	100.000	113.000	105.000	117.000	120.000	121.000	122.000	118.000	97.000	110.000	188.000	153.000	103.000	105.000	85.000	85.000	85.000	85.000	85.000	82.000	95.000	110.000	67.213	123.000	123.000	123.000	123.000	113.000	85.000	89.000	117.000	216.000	203.000	117.000	151.000	109.000	117.000	106.000	111.000	132.000	190.000	185.000	186.000	164.000	105.000	129.000	192.000	177.000	127.000	119.000	115.000	113.000	111.000	121.000	124.000	116.000	116.000	96.000	113.000	119.000	121.000	141.000	176.000	153.000	134.000	66.000	110.000	144.000	195.000	196.000	199.000	154.000	99.000	126.000	119.000	147.000	199.000	210.000	209.000	209.000	202.000	200.000	187.000	142.000	119.000	104.000	106.000	113.000	154.000	191.000	192.000	147.000	157.000	189.000	186.000	189.000	197.000	127.000	82.000	85.000	85.000	85.000	85.000	85.000	85.000	85.000	85.000	85.000	85.000	85.000	85.000	85.000	84.000	83.000
252.000	211.000	205.000	207.000	235.000	234.000	242.000	243.000	245.000	244.000	242.000	239.000	217.000	249.000	209.000	209.000	208.000	206.000	208.000	207.000	205.000	185.000	203.000	210.000	224.000	208.000	208.000	207.000	205.000	207.000	209.000	209.000	202.000	187.000	192.000	175.000	93.000	118.000	107.000	119.000	99.000	107.000	107.000	122.000	119.000	103.000	86.000	111.000	121.000	116.000	117.000	90.000	84.000	85.000	85.000	85.000	85.000	85.000	85.000	85.000	85.000	85.000	83.000	83.000	92.000	113.000	115.000	116.000	115.000	103.000	89.000	90.000	95.000	95.000	97.000	137.000	184.000	182.000	193.000	201.000	226.000	253.000	250.000	248.000	232.000	230.000	224.000	202.000	207.000	204.000	186.000	191.000	201.000	200.000	193.000	214.000	226.000	223.000	225.000	226.000	216.000	211.000	211.000	209.000	209.000	193.000	182.000	196.000	199.000	182.000	188.000	140.000	116.000	116.000	107.000	95.000	104.000	120.000	119.000	108.000	100.000	90.000	83.000	85.000	112.000	121.000	123.000	120.000	122.000	120.000	120.000	107.000	116.000	120.000	102.000	102.000	148.000	190.000	105.000	109.000	88.000	85.000	85.000	85.000	85.000	85.000	85.000	84.000	67.216	105.000	119.000	122.000	122.000	123.000	116.000	100.000	104.000	149.000	243.000	203.000	114.000	93.000	98.000	97.000	115.000	183.000	192.000	185.000	184.000	164.000	114.000	123.000	131.000	190.000	188.000	181.000	115.000	111.000	111.000	111.000	127.000	164.000	120.000	119.000	95.000	109.000	115.000	129.000	122.000	107.000	87.000	98.000	74.000	109.000	145.000	194.000	194.000	193.000	162.000	101.000	125.000	124.000	119.000	159.000	216.000	211.000	213.000	200.000	199.000	206.000	191.000	149.000	100.000	103.000	150.000	198.000	213.000	201.000	151.000	117.000	176.000	203.000	148.000	124.000	118.000	92.000	83.000	84.000	84.000	84.000	84.000	84.000	84.000	85.000	85.000	85.000	84.000	83.000	87.000	95.000	104.000
229.000	200.000	195.000	208.000	207.000	193.000	228.000	231.000	233.000	241.000	245.000	203.000	186.000	229.000	200.000	205.000	208.000	204.000	205.000	201.000	191.000	203.000	208.000	208.000	197.000	198.000	208.000	207.000	184.000	179.000	207.000	209.000	202.000	171.000	194.000	177.000	113.000	114.000	85.000	91.000	88.000	87.000	101.000	107.000	110.000	86.000	91.000	120.000	119.000	114.000	120.000	104.000	83.000	85.000	85.000	85.000	85.000	85.000	85.000	85.000	85.000	106.000	162.000	150.000	105.000	113.000	111.000	115.000	114.000	113.000	107.000	121.000	164.000	161.000	139.000	127.000	170.000	179.000	185.000	200.000	228.000	254.000	251.000	240.000	229.000	210.000	184.000	195.000	200.000	183.000	190.000	201.000	198.000	198.000	197.000	202.000	227.000	242.000	236.000	225.000	224.000	200.000	185.000	192.000	203.000	188.000	191.000	200.000	197.000	184.000	189.000	140.000	120.000	116.000	104.000	109.000	121.000	123.000	122.000	122.000	118.000	112.000	105.000	107.000	116.000	121.000	121.000	121.000	121.000	119.000	119.000	102.000	105.000	101.000	86.000	142.000	191.000	149.000	107.000	95.000	85.000	85.000	85.000	85.000	85.000	85.000	85.000	67.219	84.000	87.000	104.000	124.000	123.000	122.000	123.000	120.000	152.000	172.000	210.000	196.000	98.000	108.000	110.000	114.000	167.000	179.000	185.000	187.000	179.000	113.000	122.000	126.000	143.000	189.000	190.000	180.000	115.000	107.000	98.000	99.000	97.000	109.000	175.000	151.000	92.000	108.000	134.000	178.000	119.000	109.000	82.000	120.000	136.000	160.000	181.000	178.000	171.000	166.000	148.000	110.000	123.000	122.000	119.000	146.000	187.000	193.000	210.000	209.000	209.000	208.000	209.000	202.000	143.000	142.000	204.000	212.000	212.000	201.000	150.000	112.000	173.000	206.000	146.000	119.000	114.000	106.000	108.000	106.000	107.000	107.000	101.000	98.000	94.000	90.000	88.000	88.000	94.000	101.000	104.000	107.000	114.000
197.000	195.000	203.000	209.000	209.000	209.000	225.000	228.000	234.000	220.000	231.000	215.000	214.000	186.000	193.000	188.000	204.000	185.000	166.000	197.000	206.000	209.000	208.000	208.000	209.000	189.000	208.000	208.000	184.000	120.000	177.000	206.000	160.000	96.000	160.000	173.000	119.000	84.000	85.000	85.000	85.000	85.000	84.000	84.000	86.000	85.000	87.000	99.000	85.000	88.000	103.000	110.000	83.000	85.000	85.000	85.000	85.000	85.000	85.000	85.000	85.000	125.000	194.000	115.000	121.000	119.000	113.000	116.000	115.000	112.000	128.000	182.000	209.000	207.000	183.000	159.000	191.000	208.000	208.000	210.000	210.000	215.000	206.000	205.000	228.000	216.000	194.000	189.000	182.000	189.000	201.000	199.000	196.000	196.000	198.000	196.000	222.000	241.000	243.000	233.000	215.000	201.000	191.000	184.000	184.000	182.000	184.000	192.000	200.000	189.000	189.000	137.000	121.000	123.000	107.000	107.000	104.000	108.000	115.000	122.000	123.000	122.000	121.000	122.000	122.000	121.000	121.000	121.000	121.000	119.000	119.000	116.000	107.000	90.000	125.000	170.000	145.000	102.000	100.000	86.000	85.000	85.000	85.000	85.000	84.000	85.000	67.222	85.000	85.000	84.000	100.000	123.000	120.000	120.000	122.000	121.000	231.000	118.000	177.000	152.000	104.000	104.000	97.000	173.000	169.000	139.000	151.000	184.000	180.000	118.000	124.000	130.000	196.000	186.000	176.000	166.000	117.000	116.000	114.000	115.000	117.000	125.000	179.000	168.000	90.000	104.000	119.000	156.000	120.000	109.000	85.000	129.000	133.000	150.000	183.000	191.000	175.000	176.000	148.000	103.000	124.000	122.000	122.000	121.000	117.000	145.000	199.000	210.000	197.000	194.000	210.000	209.000	208.000	208.000	208.000	209.000	210.000	210.000	197.000	183.000	197.000	212.000	200.000	146.000	116.000	119.000	114.000	162.000	145.000	115.000	118.000	115.000	112.000	109.000	108.000	110.000	107.000	155.000	190.000	228.000	208.000
193.000	194.000	205.000	209.000	209.000	210.000	195.000	192.000	196.000	192.000	196.000	242.000	254.000	197.000	202.000	188.000	189.000	182.000	101.000	199.000	208.000	208.000	208.000	208.000	209.000	199.000	198.000	208.000	189.000	123.000	118.000	176.000	178.000	117.000	119.000	115.000	115.000	86.000	85.000	85.000	85.000	85.000	85.000	85.000	85.000	85.000	85.000	88.000	87.000	85.000	85.000	90.000	85.000	85.000	85.000	85.000	85.000	85.000	84.000	97.000	168.000	208.000	205.000	168.000	115.000	120.000	123.000	119.000	130.000	182.000	190.000	209.000	207.000	193.000	180.000	192.000	211.000	210.000	209.000	208.000	209.000	204.000	214.000	229.000	225.000	210.000	197.000	194.000	176.000	184.000	198.000	201.000	196.000	195.000	198.000	198.000	197.000	228.000	223.000	192.000	197.000	201.000	198.000	201.000	192.000	184.000	185.000	182.000	182.000	189.000	202.000	181.000	133.000	125.000	109.000	106.000	149.000	121.000	108.000	108.000	110.000	117.000	122.000	122.000	121.000	121.000	121.000	121.000	121.000	120.000	119.000	123.000	106.000	96.000	177.000	171.000	107.000	99.000	88.000	85.000	85.000	85.000	83.000	85.000	85.000	67.225	85.000	85.000	85.000	84.000	110.000	119.000	99.000	105.000	123.000	145.000	241.000	121.000	106.000	101.000	115.000	94.000	102.000	180.000	182.000	125.000	94.000	142.000	174.000	117.000	123.000	126.000	174.000	164.000	109.000	113.000	117.000	115.000	110.000	110.000	112.000	101.000	109.000	149.000	90.000	98.000	98.000	106.000	125.000	107.000	99.000	183.000	130.000	147.000	168.000	166.000	166.000	164.000	138.000	99.000	127.000	125.000	124.000	123.000	118.000	146.000	191.000	176.000	173.000	189.000	197.000	212.000	209.000	209.000	197.000	184.000	198.000	210.000	209.000	208.000	208.000	209.000	208.000	207.000	205.000	205.000	205.000	206.000	204.000	203.000	204.000	188.000	178.000	178.000	176.000	192.000	197.000	230.000	248.000	250.000	246.000
214.000	200.000	203.000	208.000	210.000	210.000	201.000	198.000	198.000	196.000	200.000	227.000	242.000	195.000	208.000	212.000	192.000	156.000	116.000	180.000	207.000	208.000	208.000	202.000	207.000	210.000	188.000	202.000	206.000	137.000	121.000	118.000	120.000	110.000	115.000	97.000	98.000	85.000	85.000	85.000	85.000	85.000	85.000	85.000	85.000	85.000	85.000	85.000	85.000	85.000	85.000	85.000	85.000	85.000	85.000	85.000	85.000	85.000	84.000	114.000	215.000	207.000	207.000	207.000	209.000	185.000	101.000	129.000	190.000	202.000	204.000	204.000	180.000	180.000	190.000	210.000	225.000	251.000	248.000	233.000	205.000	195.000	198.000	237.000	244.000	228.000	200.000	197.000	216.000	197.000	185.000	192.000	202.000	202.000	201.000	198.000	194.000	203.000	196.000	182.000	194.000	198.000	196.000	203.000	191.000	183.000	195.000	199.000	200.000	206.000	212.000	191.000	117.000	94.000	89.000	133.000	193.000	179.000	124.000	110.000	143.000	152.000	120.000	117.000	123.000	122.000	121.000	121.000	121.000	121.000	122.000	116.000	96.000	149.000	140.000	142.000	106.000	89.000	84.000	85.000	84.000	85.000	83.000	85.000	67.229	85.000	85.000	85.000	85.000	84.000	117.000	105.000	83.000	89.000	110.000	200.000	171.000	122.000	146.000	141.000	125.000	100.000	113.000	147.000	174.000	158.000	108.000	100.000	142.000	115.000	123.000	122.000	118.000	109.000	91.000	100.000	105.000	110.000	109.000	109.000	110.000	111.000	112.000	104.000	94.000	102.000	102.000	104.000	125.000	111.000	103.000	181.000	132.000	127.000	103.000	105.000	100.000	90.000	97.000	102.000	147.000	173.000	119.000	119.000	112.000	134.000	180.000	172.000	173.000	187.000	184.000	183.000	184.000	185.000	187.000	187.000	198.000	210.000	209.000	206.000	204.000	231.000	252.000	249.000	250.000	247.000	242.000	244.000	247.000	249.000	251.000	246.000	245.000	247.000	246.000	246.000	248.000	252.000	252.000	217.000	198.000
240.000	203.000	196.000	198.000	202.000	204.000	197.000	195.000	195.000	197.000	202.000	199.000	208.000	191.000	207.000	203.000	171.000	122.000	119.000	164.000	202.000	204.000	204.000	185.000	203.000	209.000	190.000	194.000	191.000	201.000	133.000	122.000	124.000	113.000	113.000	84.000	86.000	85.000	85.000	85.000	86.000	91.000	90.000	85.000	85.000	85.000	85.000	85.000	85.000	85.000	85.000	85.000	85.000	85.000	85.000	85.000	85.000	85.000	86.000	113.000	189.000	188.000	209.000	206.000	196.000	183.000	177.000	192.000	209.000	200.000	203.000	205.000	199.000	200.000	200.000	209.000	221.000	252.000	249.000	252.000	235.000	205.000	199.000	184.000	192.000	218.000	231.000	211.000	200.000	201.000	196.000	176.000	176.000	188.000	191.000	199.000	201.000	205.000	192.000	186.000	196.000	197.000	183.000	194.000	190.000	189.000	199.000	198.000	194.000	192.000	192.000	188.000	166.000	142.000	147.000	176.000	182.000	187.000	175.000	128.000	166.000	203.000	130.000	106.000	107.000	117.000	121.000	121.000	121.000	121.000	122.000	100.000	102.000	179.000	117.000	104.000	90.000	85.000	85.000	85.000	85.000	84.000	85.000	67.232	85.000	85.000	85.000	85.000	85.000	84.000	106.000	88.000	85.000	91.000	173.000	212.000	144.000	120.000	191.000	201.000	180.000	116.000	116.000	108.000	145.000	95.000	107.000	120.000	111.000	120.000	122.000	122.000	123.000	121.000	93.000	95.000	95.000	93.000	100.000	98.000	99.000	99.000	99.000	98.000	94.000	96.000	95.000	100.000	123.000	124.000	151.000	182.000	135.000	121.000	113.000	118.000	112.000	99.000	99.000	101.000	143.000	194.000	167.000	114.000	142.000	188.000	183.000	175.000	169.000	187.000	155.000	112.000	113.000	111.000	121.000	118.000	151.000	200.000	212.000	198.000	207.000	233.000	238.000	240.000	233.000	230.000	232.000	236.000	231.000	228.000	231.000	233.000	237.000	240.000	246.000	251.000	224.000	205.000	192.000	120.000	139.000
236.000	200.000	194.000	186.000	161.000	195.000	194.000	191.000	191.000	192.000	201.000	202.000	208.000	196.000	202.000	195.000	141.000	112.000	118.000	114.000	163.000	168.000	168.000	170.000	168.000	202.000	197.000	200.000	206.000	196.000	188.000	123.000	123.000	106.000	104.000	85.000	85.000	85.000	85.000	88.000	102.000	118.000	114.000	85.000	85.000	85.000	85.000	85.000	85.000	86.000	85.000	85.000	85.000	85.000	85.000	85.000	85.000	85.000	88.000	112.000	119.000	130.000	193.000	201.000	191.000	205.000	189.000	209.000	203.000	201.000	201.000	205.000	212.000	207.000	217.000	251.000	248.000	251.000	252.000	252.000	249.000	232.000	207.000	201.000	185.000	186.000	190.000	199.000	199.000	196.000	184.000	140.000	108.000	155.000	197.000	187.000	186.000	189.000	183.000	194.000	205.000	199.000	181.000	186.000	188.000	194.000	201.000	197.000	190.000	185.000	186.000	188.000	200.000	196.000	195.000	174.000	156.000	180.000	196.000	136.000	169.000	200.000	179.000	128.000	110.000	110.000	119.000	121.000	121.000	123.000	107.000	98.000	158.000	132.000	107.000	92.000	85.000	85.000	85.000	85.000	83.000	84.000	67.235	85.000	85.000	85.000	85.000	85.000	85.000	85.000	85.000	84.000	92.000	105.000	203.000	209.000	193.000	152.000	188.000	212.000	187.000	119.000	122.000	109.000	104.000	112.000	103.000	105.000	124.000	123.000	122.000	122.000	110.000	106.000	102.000	109.000	112.000	102.000	128.000	121.000	126.000	126.000	126.000	123.000	97.000	108.000	110.000	108.000	123.000	121.000	141.000	202.000	125.000	68.000	143.000	192.000	183.000	150.000	98.000	99.000	140.000	186.000	162.000	117.000	120.000	118.000	120.000	112.000	106.000	114.000	92.000	85.000	87.000	102.000	122.000	123.000	119.000	149.000	203.000	201.000	194.000	201.000	189.000	208.000	233.000	233.000	235.000	229.000	228.000	235.000	237.000	235.000	236.000	240.000	221.000	144.000	104.000	156.000	136.000	95.000	90.000
225.000	206.000	205.000	195.000	127.000	162.000	194.000	194.000	192.000	206.000	205.000	203.000	205.000	205.000	194.000	207.000	203.000	125.000	138.000	120.000	114.000	117.000	117.000	117.000	114.000	166.000	174.000	166.000	170.000	172.000	176.000	123.000	122.000	102.000	84.000	85.000	85.000	85.000	89.000	110.000	114.000	106.000	111.000	93.000	85.000	85.000	85.000	86.000	90.000	94.000	98.000	93.000	91.000	88.000	86.000	85.000	85.000	86.000	98.000	123.000	120.000	130.000	194.000	206.000	191.000	207.000	190.000	180.000	191.000	209.000	204.000	208.000	219.000	252.000	249.000	251.000	240.000	205.000	212.000	243.000	251.000	236.000	206.000	207.000	153.000	115.000	175.000	197.000	205.000	198.000	183.000	133.000	82.000	126.000	190.000	200.000	201.000	195.000	185.000	186.000	185.000	186.000	194.000	193.000	184.000	196.000	200.000	197.000	205.000	194.000	189.000	188.000	200.000	206.000	192.000	185.000	180.000	186.000	180.000	133.000	132.000	125.000	139.000	129.000	121.000	108.000	117.000	121.000	124.000	113.000	103.000	114.000	138.000	108.000	90.000	85.000	85.000	85.000	85.000	85.000	83.000	67.238	85.000	85.000	85.000	85.000	85.000	85.000	85.000	85.000	84.000	89.000	107.000	116.000	107.000	207.000	190.000	164.000	191.000	204.000	187.000	122.000	123.000	120.000	124.000	113.000	110.000	107.000	118.000	123.000	123.000	123.000	98.000	92.000	110.000	116.000	116.000	115.000	118.000	118.000	118.000	117.000	114.000	117.000	96.000	104.000	106.000	106.000	124.000	110.000	84.000	188.000	133.000	80.000	184.000	193.000	186.000	148.000	98.000	100.000	122.000	117.000	119.000	121.000	121.000	121.000	122.000	115.000	108.000	121.000	103.000	85.000	89.000	109.000	124.000	124.000	119.000	151.000	179.000	156.000	159.000	164.000	186.000	205.000	200.000	196.000	197.000	189.000	213.000	239.000	239.000	217.000	200.000	205.000	145.000	105.000	106.000	112.000	114.000	96.000	85.000
186.000	190.000	196.000	197.000	137.000	114.000	147.000	148.000	147.000	167.000	192.000	196.000	194.000	210.000	197.000	196.000	208.000	183.000	198.000	153.000	139.000	117.000	117.000	118.000	122.000	119.000	100.000	112.000	116.000	117.000	120.000	122.000	123.000	109.000	85.000	85.000	85.000	86.000	103.000	121.000	113.000	121.000	103.000	108.000	85.000	85.000	86.000	95.000	101.000	112.000	168.000	105.000	108.000	120.000	115.000	90.000	85.000	88.000	112.000	122.000	123.000	136.000	213.000	209.000	192.000	179.000	183.000	197.000	213.000	212.000	208.000	219.000	252.000	250.000	252.000	238.000	202.000	207.000	208.000	234.000	235.000	209.000	209.000	187.000	132.000	97.000	108.000	121.000	166.000	172.000	148.000	94.000	86.000	121.000	186.000	199.000	200.000	190.000	134.000	155.000	209.000	192.000	186.000	184.000	180.000	187.000	198.000	206.000	202.000	197.000	150.000	163.000	207.000	197.000	146.000	128.000	178.000	158.000	117.000	102.000	99.000	101.000	115.000	121.000	122.000	108.000	117.000	125.000	111.000	97.000	109.000	121.000	106.000	101.000	88.000	85.000	85.000	85.000	85.000	84.000	67.241	85.000	85.000	85.000	85.000	85.000	85.000	85.000	85.000	85.000	88.000	102.000	113.000	150.000	152.000	197.000	160.000	118.000	155.000	149.000	157.000	123.000	122.000	122.000	123.000	123.000	117.000	124.000	124.000	122.000	123.000	124.000	100.000	103.000	95.000	91.000	92.000	97.000	101.000	99.000	103.000	99.000	99.000	98.000	94.000	96.000	95.000	99.000	124.000	112.000	90.000	190.000	138.000	77.000	201.000	212.000	204.000	161.000	101.000	98.000	119.000	121.000	121.000	121.000	121.000	121.000	122.000	115.000	106.000	150.000	183.000	127.000	84.000	108.000	124.000	124.000	120.000	153.000	166.000	109.000	102.000	106.000	92.000	135.000	191.000	190.000	193.000	188.000	188.000	194.000	194.000	193.000	193.000	193.000	196.000	138.000	96.000	95.000	101.000	93.000	85.000
158.000	146.000	138.000	152.000	127.000	116.000	103.000	123.000	105.000	101.000	135.000	151.000	171.000	205.000	211.000	197.000	194.000	202.000	209.000	211.000	193.000	133.000	109.000	109.000	115.000	119.000	106.000	118.000	122.000	121.000	122.000	122.000	122.000	112.000	85.000	85.000	86.000	93.000	107.000	179.000	194.000	129.000	115.000	103.000	92.000	85.000	91.000	100.000	105.000	195.000	212.000	213.000	210.000	186.000	155.000	103.000	100.000	97.000	122.000	128.000	195.000	210.000	196.000	182.000	181.000	188.000	208.000	213.000	211.000	210.000	210.000	208.000	218.000	253.000	252.000	237.000	186.000	198.000	200.000	228.000	223.000	187.000	181.000	187.000	161.000	99.000	116.000	135.000	173.000	152.000	102.000	91.000	84.000	125.000	177.000	184.000	208.000	157.000	96.000	112.000	161.000	203.000	200.000	192.000	189.000	194.000	185.000	189.000	157.000	133.000	121.000	119.000	172.000	194.000	137.000	112.000	133.000	119.000	96.000	93.000	92.000	95.000	108.000	121.000	124.000	107.000	116.000	112.000	94.000	100.000	161.000	123.000	104.000	91.000	85.000	85.000	85.000	85.000	84.000	67.244	85.000	85.000	85.000	85.000	85.000	85.000	85.000	85.000	85.000	85.000	95.000	113.000	160.000	187.000	182.000	187.000	120.000	117.000	104.000	104.000	116.000	123.000	123.000	122.000	122.000	123.000	124.000	123.000	123.000	123.000	124.000	115.000	96.000	117.000	103.000	126.000	93.000	103.000	104.000	104.000	107.000	102.000	101.000	101.000	94.000	96.000	99.000	99.000	124.000	110.000	91.000	195.000	152.000	84.000	187.000	207.000	202.000	164.000	97.000	98.000	122.000	120.000	121.000	120.000	120.000	120.000	119.000	111.000	131.000	203.000	193.000	126.000	84.000	103.000	116.000	122.000	119.000	152.000	165.000	106.000	106.000	105.000	139.000	194.000	199.000	195.000	196.000	196.000	195.000	195.000	195.000	196.000	196.000	196.000	196.000	195.000	184.000	127.000	90.000	86.000	85.000
174.000	149.000	131.000	138.000	146.000	155.000	146.000	180.000	147.000	113.000	100.000	103.000	167.000	208.000	209.000	210.000	195.000	198.000	202.000	193.000	197.000	201.000	128.000	116.000	107.000	108.000	101.000	116.000	116.000	110.000	114.000	122.000	122.000	114.000	87.000	85.000	95.000	118.000	123.000	207.000	200.000	177.000	106.000	99.000	98.000	86.000	103.000	98.000	96.000	187.000	207.000	192.000	179.000	178.000	155.000	92.000	98.000	119.000	122.000	129.000	204.000	181.000	181.000	193.000	210.000	209.000	205.000	210.000	209.000	210.000	211.000	210.000	209.000	208.000	210.000	206.000	188.000	181.000	193.000	197.000	180.000	181.000	193.000	210.000	207.000	190.000	148.000	110.000	114.000	126.000	113.000	93.000	82.000	129.000	190.000	180.000	176.000	162.000	134.000	110.000	108.000	159.000	208.000	181.000	175.000	193.000	187.000	199.000	160.000	117.000	116.000	104.000	121.000	132.000	118.000	117.000	121.000	114.000	107.000	109.000	116.000	97.000	131.000	115.000	112.000	122.000	110.000	97.000	100.000	158.000	149.000	112.000	95.000	86.000	85.000	85.000	85.000	85.000	67.247	85.000	85.000	85.000	85.000	85.000	85.000	85.000	85.000	85.000	84.000	91.000	103.000	113.000	209.000	187.000	167.000	188.000	123.000	106.000	112.000	123.000	121.000	121.000	123.000	124.000	122.000	123.000	122.000	122.000	122.000	123.000	123.000	103.000	103.000	103.000	103.000	185.000	121.000	123.000	122.000	122.000	121.000	117.000	114.000	116.000	96.000	102.000	108.000	106.000	123.000	111.000	92.000	215.000	174.000	111.000	120.000	177.000	175.000	165.000	103.000	120.000	171.000	125.000	119.000	115.000	108.000	108.000	108.000	106.000	134.000	184.000	142.000	78.000	85.000	83.000	95.000	120.000	119.000	151.000	163.000	105.000	107.000	103.000	134.000	186.000	196.000	195.000	195.000	196.000	183.000	182.000	197.000	196.000	197.000	182.000	184.000	197.000	193.000	177.000	163.000	113.000	80.000
210.000	204.000	201.000	203.000	200.000	211.000	218.000	213.000	209.000	138.000	114.000	112.000	143.000	194.000	208.000	208.000	210.000	198.000	187.000	199.000	204.000	209.000	131.000	121.000	123.000	118.000	102.000	104.000	100.000	84.000	105.000	121.000	122.000	115.000	94.000	96.000	97.000	194.000	198.000	194.000	197.000	170.000	114.000	114.000	98.000	94.000	105.000	110.000	95.000	164.000	180.000	183.000	190.000	169.000	113.000	119.000	98.000	95.000	120.000	108.000	158.000	187.000	206.000	212.000	213.000	210.000	209.000	209.000	209.000	210.000	211.000	212.000	204.000	203.000	202.000	201.000	186.000	186.000	182.000	181.000	188.000	205.000	208.000	208.000	209.000	206.000	158.000	91.000	96.000	106.000	116.000	92.000	84.000	89.000	104.000	149.000	192.000	181.000	187.000	154.000	100.000	116.000	118.000	107.000	112.000	149.000	174.000	186.000	153.000	117.000	118.000	97.000	91.000	102.000	110.000	118.000	121.000	120.000	119.000	120.000	122.000	114.000	153.000	164.000	153.000	117.000	94.000	96.000	157.000	151.000	113.000	99.000	89.000	85.000	85.000	84.000	85.000	67.250	85.000	85.000	85.000	85.000	85.000	85.000	85.000	85.000	85.000	85.000	85.000	99.000	147.000	151.000	206.000	193.000	186.000	145.000	107.000	112.000	122.000	121.000	121.000	121.000	121.000	123.000	124.000	124.000	122.000	123.000	123.000	124.000	122.000	107.000	116.000	107.000	106.000	147.000	147.000	107.000	108.000	108.000	108.000	106.000	106.000	105.000	93.000	97.000	102.000	100.000	124.000	115.000	87.000	217.000	188.000	52.000	83.000	116.000	129.000	184.000	168.000	166.000	171.000	177.000	122.000	113.000	109.000	110.000	107.000	105.000	119.000	114.000	98.000	83.000	85.000	85.000	97.000	120.000	120.000	144.000	187.000	152.000	106.000	104.000	105.000	133.000	186.000	200.000	194.000	184.000	184.000	193.000	201.000	197.000	197.000	183.000	172.000	174.000	177.000	189.000	140.000	88.000	83.000
206.000	210.000	210.000	211.000	209.000	208.000	212.000	210.000	214.000	166.000	125.000	117.000	109.000	142.000	200.000	209.000	209.000	209.000	193.000	205.000	168.000	164.000	127.000	121.000	122.000	118.000	116.000	103.000	103.000	85.000	97.000	119.000	122.000	119.000	106.000	111.000	117.000	196.000	210.000	210.000	210.000	155.000	116.000	114.000	100.000	117.000	114.000	110.000	95.000	162.000	190.000	206.000	203.000	165.000	119.000	121.000	119.000	92.000	93.000	102.000	119.000	191.000	212.000	209.000	208.000	209.000	209.000	210.000	211.000	210.000	194.000	211.000	205.000	197.000	178.000	188.000	191.000	179.000	185.000	205.000	208.000	207.000	208.000	209.000	204.000	192.000	191.000	158.000	119.000	144.000	108.000	89.000	84.000	86.000	88.000	99.000	140.000	175.000	183.000	186.000	144.000	105.000	105.000	92.000	94.000	101.000	106.000	165.000	206.000	150.000	113.000	94.000	87.000	95.000	111.000	122.000	121.000	121.000	121.000	121.000	121.000	117.000	163.000	206.000	177.000	147.000	110.000	141.000	144.000	109.000	104.000	92.000	85.000	85.000	85.000	85.000	67.253	85.000	85.000	85.000	85.000	85.000	85.000	85.000	85.000	85.000	85.000	84.000	92.000	109.000	192.000	204.000	204.000	157.000	157.000	100.000	106.000	122.000	121.000	121.000	121.000	121.000	121.000	121.000	124.000	123.000	123.000	123.000	122.000	123.000	123.000	120.000	115.000	103.000	116.000	104.000	99.000	106.000	97.000	107.000	106.000	103.000	104.000	105.000	95.000	99.000	111.000	112.000	123.000	116.000	87.000	209.000	190.000	61.000	71.000	94.000	125.000	182.000	164.000	149.000	154.000	160.000	151.000	102.000	110.000	116.000	119.000	104.000	117.000	115.000	107.000	86.000	84.000	86.000	100.000	120.000	123.000	119.000	125.000	162.000	145.000	101.000	105.000	133.000	175.000	173.000	180.000	184.000	184.000	185.000	183.000	196.000	205.000	202.000	151.000	103.000	116.000	123.000	124.000	102.000	83.000
195.000	197.000	196.000	211.000	227.000	216.000	202.000	199.000	200.000	190.000	129.000	109.000	115.000	106.000	183.000	213.000	204.000	204.000	187.000	167.000	123.000	115.000	121.000	119.000	115.000	105.000	102.000	102.000	111.000	90.000	98.000	118.000	122.000	119.000	116.000	102.000	201.000	192.000	209.000	207.000	203.000	99.000	116.000	130.000	119.000	195.000	189.000	107.000	103.000	181.000	187.000	202.000	200.000	200.000	163.000	101.000	94.000	104.000	103.000	125.000	126.000	125.000	191.000	209.000	209.000	209.000	210.000	204.000	202.000	205.000	198.000	199.000	212.000	199.000	166.000	126.000	203.000	200.000	197.000	196.000	190.000	204.000	181.000	177.000	188.000	182.000	193.000	211.000	173.000	87.000	87.000	85.000	85.000	86.000	92.000	98.000	127.000	183.000	193.000	178.000	179.000	182.000	137.000	92.000	98.000	83.000	86.000	107.000	128.000	127.000	118.000	96.000	87.000	96.000	113.000	123.000	118.000	119.000	121.000	121.000	121.000	120.000	128.000	172.000	169.000	167.000	173.000	150.000	107.000	104.000	96.000	85.000	85.000	84.000	67.259	67.256	85.000	85.000	85.000	85.000	85.000	85.000	85.000	85.000	85.000	86.000	77.000	79.000	106.000	116.000	199.000	214.000	155.000	122.000	108.000	107.000	113.000	118.000	121.000	121.000	121.000	121.000	122.000	119.000	114.000	118.000	123.000	122.000	123.000	123.000	123.000	123.000	116.000	115.000	117.000	110.000	111.000	116.000	104.000	124.000	116.000	109.000	110.000	116.000	97.000	104.000	124.000	125.000	122.000	120.000	116.000	197.000	194.000	83.000	103.000	66.000	80.000	144.000	143.000	92.000	118.000	120.000	120.000	118.000	107.000	113.000	145.000	92.000	104.000	108.000	110.000	99.000	83.000	91.000	108.000	119.000	123.000	116.000	92.000	80.000	83.000	86.000	87.000	96.000	106.000	107.000	112.000	113.000	145.000	160.000	112.000	149.000	200.000	211.000	155.000	106.000	118.000	122.000	115.000	94.000	83.000
220.000	204.000	191.000	226.000	254.000	221.000	199.000	195.000	194.000	179.000	118.000	97.000	112.000	113.000	147.000	171.000	161.000	159.000	152.000	121.000	120.000	122.000	117.000	111.000	105.000	110.000	114.000	108.000	116.000	108.000	112.000	125.000	122.000	134.000	124.000	113.000	175.000	186.000	201.000	196.000	167.000	99.000	107.000	166.000	189.000	181.000	186.000	188.000	133.000	182.000	180.000	202.000	202.000	190.000	88.000	95.000	112.000	200.000	182.000	183.000	119.000	125.000	192.000	210.000	213.000	213.000	209.000	201.000	165.000	189.000	206.000	189.000	201.000	202.000	198.000	184.000	211.000	210.000	201.000	153.000	130.000	179.000	152.000	112.000	123.000	119.000	144.000	214.000	203.000	151.000	79.000	85.000	88.000	91.000	88.000	97.000	134.000	185.000	188.000	183.000	179.000	182.000	178.000	179.000	148.000	94.000	93.000	142.000	194.000	151.000	114.000	96.000	91.000	101.000	110.000	112.000	150.000	143.000	115.000	121.000	121.000	120.000	114.000	106.000	144.000	181.000	195.000	135.000	102.000	98.000	87.000	85.000	83.000	67.263	67.261	85.000	85.000	85.000	85.000	85.000	85.000	85.000	85.000	85.000	85.000	79.000	157.000	195.000	127.000	109.000	196.000	200.000	120.000	110.000	96.000	112.000	113.000	113.000	120.000	121.000	121.000	121.000	114.000	106.000	105.000	113.000	118.000	123.000	124.000	123.000	119.000	122.000	123.000	124.000	118.000	117.000	118.000	117.000	115.000	122.000	116.000	111.000	109.000	113.000	97.000	103.000	121.000	122.000	122.000	126.000	175.000	188.000	201.000	127.000	108.000	108.000	74.000	59.000	66.000	98.000	112.000	111.000	111.000	108.000	86.000	68.000	59.000	60.000	58.000	59.000	65.000	71.000	79.000	96.000	113.000	122.000	121.000	108.000	89.000	84.000	85.000	85.000	86.000	96.000	110.000	105.000	104.000	111.000	113.000	121.000	117.000	148.000	200.000	210.000	209.000	161.000	116.000	123.000	107.000	87.000	84.000
249.000	238.000	228.000	245.000	253.000	237.000	217.000	204.000	199.000	192.000	167.000	112.000	109.000	115.000	113.000	117.000	117.000	116.000	117.000	120.000	120.000	115.000	110.000	111.000	118.000	120.000	121.000	113.000	108.000	112.000	111.000	114.000	118.000	186.000	181.000	123.000	154.000	179.000	185.000	186.000	171.000	99.000	175.000	200.000	207.000	189.000	189.000	189.000	194.000	209.000	184.000	182.000	180.000	182.000	103.000	108.000	137.000	214.000	211.000	206.000	126.000	135.000	213.000	204.000	236.000	208.000	208.000	205.000	173.000	176.000	175.000	180.000	180.000	196.000	199.000	199.000	202.000	211.000	203.000	153.000	110.000	168.000	118.000	116.000	104.000	121.000	136.000	197.000	205.000	163.000	94.000	82.000	85.000	85.000	84.000	90.000	136.000	189.000	192.000	208.000	199.000	187.000	180.000	182.000	190.000	158.000	109.000	150.000	197.000	155.000	108.000	111.000	99.000	142.000	198.000	193.000	200.000	204.000	149.000	111.000	117.000	154.000	124.000	90.000	107.000	154.000	182.000	131.000	97.000	88.000	85.000	83.000	67.267	67.265	85.000	85.000	85.000	85.000	85.000	85.000	85.000	85.000	85.000	85.000	85.000	80.000	137.000	229.000	187.000	171.000	196.000	149.000	117.000	97.000	105.000	102.000	105.000	115.000	122.000	121.000	121.000	110.000	105.000	109.000	114.000	117.000	114.000	119.000	119.000	123.000	118.000	124.000	123.000	122.000	123.000	123.000	123.000	123.000	124.000	123.000	123.000	119.000	113.000	114.000	96.000	102.000	123.000	122.000	122.000	123.000	148.000	187.000	202.000	123.000	97.000	108.000	106.000	91.000	80.000	70.000	68.000	62.000	59.000	59.000	60.000	64.000	73.000	75.000	73.000	70.000	68.000	67.000	69.000	65.000	73.000	106.000	119.000	100.000	83.000	85.000	85.000	85.000	88.000	92.000	97.000	99.000	85.000	88.000	104.000	119.000	112.000	148.000	199.000	210.000	213.000	167.000	112.000	149.000	178.000	127.000	93.000
245.000	250.000	250.000	251.000	253.000	255.000	223.000	202.000	197.000	195.000	208.000	155.000	118.000	114.000	118.000	121.000	123.000	122.000	121.000	122.000	110.000	100.000	104.000	105.000	106.000	105.000	106.000	101.000	91.000	120.000	125.000	97.000	113.000	179.000	192.000	199.000	182.000	187.000	203.000	205.000	207.000	132.000	198.000	208.000	209.000	196.000	203.000	208.000	206.000	207.000	185.000	181.000	187.000	210.000	138.000	128.000	195.000	209.000	209.000	208.000	192.000	215.000	211.000	196.000	179.000	205.000	206.000	207.000	200.000	150.000	88.000	101.000	158.000	155.000	111.000	121.000	184.000	202.000	192.000	159.000	99.000	123.000	121.000	115.000	91.000	90.000	95.000	141.000	208.000	184.000	178.000	134.000	80.000	85.000	84.000	87.000	128.000	198.000	209.000	201.000	189.000	188.000	188.000	194.000	186.000	169.000	151.000	174.000	205.000	205.000	191.000	176.000	174.000	194.000	211.000	209.000	207.000	208.000	202.000	185.000	136.000	139.000	158.000	163.000	172.000	171.000	143.000	105.000	88.000	85.000	83.000	67.272	67.270	85.000	85.000	85.000	85.000	85.000	85.000	85.000	85.000	85.000	85.000	85.000	85.000	82.000	98.000	140.000	207.000	222.000	152.000	116.000	100.000	107.000	115.000	107.000	103.000	102.000	112.000	123.000	113.000	104.000	114.000	122.000	122.000	120.000	152.000	151.000	152.000	126.000	122.000	120.000	120.000	123.000	123.000	122.000	123.000	123.000	123.000	122.000	123.000	123.000	123.000	120.000	103.000	104.000	122.000	122.000	122.000	121.000	120.000	189.000	202.000	124.000	106.000	105.000	93.000	106.000	126.000	122.000	86.000	62.000	78.000	83.000	80.000	87.000	101.000	112.000	121.000	123.000	122.000	112.000	114.000	119.000	80.000	65.000	87.000	89.000	85.000	85.000	85.000	85.000	85.000	86.000	85.000	85.000	85.000	85.000	95.000	112.000	114.000	146.000	198.000	209.000	212.000	168.000	112.000	152.000	185.000	150.000	125.000
245.000	248.000	249.000	234.000	228.000	228.000	233.000	216.000	198.000	197.000	201.000	186.000	133.000	110.000	114.000	114.000	115.000	119.000	123.000	124.000	101.000	91.000	119.000	130.000	105.000	101.000	94.000	98.000	111.000	188.000	210.000	157.000	139.000	179.000	210.000	211.000	212.000	197.000	197.000	203.000	198.000	205.000	194.000	215.000	215.000	200.000	192.000	195.000	182.000	218.000	190.000	189.000	195.000	212.000	214.000	194.000	210.000	209.000	210.000	209.000	194.000	195.000	210.000	210.000	180.000	161.000	178.000	185.000	181.000	181.000	117.000	101.000	98.000	155.000	99.000	117.000	121.000	185.000	210.000	172.000	107.000	105.000	105.000	93.000	96.000	84.000	85.000	124.000	210.000	183.000	188.000	158.000	78.000	85.000	84.000	87.000	127.000	201.000	207.000	166.000	118.000	106.000	137.000	216.000	210.000	197.000	179.000	192.000	207.000	210.000	198.000	184.000	193.000	210.000	212.000	208.000	230.000	228.000	208.000	211.000	173.000	151.000	174.000	192.000	187.000	146.000	105.000	88.000	85.000	67.277	67.275	85.000	85.000	85.000	85.000	85.000	85.000	85.000	85.000	85.000	85.000	85.000	85.000	85.000	78.000	137.000	167.000	125.000	147.000	153.000	117.000	107.000	100.000	116.000	113.000	115.000	117.000	109.000	104.000	109.000	105.000	116.000	122.000	121.000	121.000	113.000	198.000	203.000	197.000	129.000	120.000	109.000	108.000	113.000	117.000	115.000	119.000	120.000	122.000	123.000	123.000	122.000	123.000	123.000	120.000	111.000	123.000	123.000	122.000	123.000	154.000	181.000	205.000	143.000	145.000	91.000	107.000	122.000	108.000	106.000	60.000	79.000	96.000	114.000	123.000	122.000	121.000	120.000	120.000	120.000	121.000	123.000	124.000	123.000	115.000	78.000	70.000	85.000	86.000	86.000	85.000	87.000	92.000	89.000	87.000	91.000	88.000	84.000	87.000	100.000	111.000	137.000	189.000	201.000	189.000	163.000	149.000	147.000	148.000	143.000	105.000
247.000	251.000	255.000	225.000	206.000	207.000	223.000	219.000	204.000	194.000	191.000	158.000	120.000	135.000	146.000	146.000	146.000	119.000	114.000	123.000	104.000	114.000	182.000	206.000	169.000	150.000	131.000	150.000	180.000	200.000	206.000	217.000	202.000	186.000	200.000	209.000	208.000	211.000	195.000	202.000	198.000	198.000	185.000	234.000	233.000	195.000	181.000	184.000	192.000	203.000	214.000	214.000	211.000	209.000	208.000	210.000	210.000	210.000	207.000	207.000	183.000	181.000	211.000	207.000	197.000	153.000	90.000	158.000	204.000	209.000	183.000	116.000	92.000	91.000	94.000	115.000	114.000	122.000	175.000	117.000	122.000	114.000	101.000	97.000	86.000	85.000	86.000	117.000	191.000	185.000	187.000	159.000	79.000	85.000	84.000	89.000	109.000	125.000	124.000	124.000	116.000	95.000	128.000	196.000	189.000	186.000	183.000	198.000	211.000	208.000	195.000	181.000	181.000	183.000	186.000	193.000	205.000	210.000	204.000	191.000	177.000	190.000	200.000	149.000	118.000	108.000	89.000	85.000	67.281	67.279	85.000	85.000	85.000	85.000	85.000	85.000	85.000	85.000	85.000	85.000	85.000	85.000	85.000	78.000	132.000	183.000	195.000	138.000	115.000	113.000	114.000	99.000	114.000	120.000	118.000	119.000	122.000	123.000	108.000	101.000	98.000	110.000	120.000	123.000	115.000	149.000	201.000	205.000	159.000	126.000	116.000	109.000	108.000	108.000	106.000	98.000	100.000	104.000	106.000	110.000	116.000	121.000	123.000	122.000	123.000	118.000	125.000	124.000	123.000	121.000	100.000	163.000	200.000	164.000	129.000	87.000	127.000	118.000	127.000	88.000	70.000	110.000	122.000	120.000	120.000	120.000	120.000	120.000	123.000	123.000	124.000	123.000	123.000	123.000	107.000	92.000	119.000	59.000	87.000	95.000	104.000	128.000	175.000	141.000	113.000	172.000	138.000	89.000	89.000	115.000	165.000	153.000	147.000	148.000	150.000	151.000	165.000	191.000	207.000	200.000	180.000
244.000	250.000	235.000	212.000	206.000	209.000	207.000	209.000	215.000	166.000	141.000	122.000	103.000	169.000	199.000	195.000	198.000	167.000	146.000	118.000	136.000	159.000	201.000	211.000	212.000	200.000	177.000	208.000	203.000	211.000	224.000	210.000	209.000	188.000	182.000	198.000	194.000	229.000	198.000	182.000	180.000	183.000	180.000	226.000	231.000	240.000	197.000	207.000	212.000	213.000	211.000	210.000	209.000	209.000	210.000	211.000	212.000	204.000	195.000	196.000	206.000	181.000	194.000	192.000	179.000	158.000	103.000	136.000	202.000	198.000	175.000	115.000	93.000	94.000	99.000	101.000	118.000	114.000	114.000	123.000	130.000	189.000	185.000	155.000	96.000	85.000	87.000	102.000	135.000	191.000	172.000	110.000	89.000	84.000	85.000	84.000	94.000	118.000	121.000	122.000	113.000	95.000	112.000	126.000	125.000	121.000	110.000	146.000	195.000	189.000	191.000	196.000	205.000	201.000	188.000	180.000	180.000	182.000	181.000	182.000	191.000	203.000	192.000	138.000	98.000	90.000	85.000	67.286	67.284	85.000	85.000	85.000	85.000	85.000	85.000	85.000	85.000	85.000	85.000	85.000	85.000	85.000	79.000	132.000	181.000	189.000	191.000	138.000	115.000	122.000	103.000	103.000	108.000	117.000	123.000	122.000	121.000	110.000	107.000	115.000	112.000	103.000	102.000	112.000	155.000	195.000	153.000	154.000	121.000	115.000	111.000	112.000	111.000	111.000	113.000	106.000	105.000	105.000	104.000	107.000	108.000	107.000	116.000	121.000	120.000	123.000	122.000	123.000	124.000	122.000	107.000	166.000	185.000	160.000	129.000	85.000	123.000	147.000	177.000	142.000	103.000	121.000	120.000	122.000	122.000	122.000	123.000	124.000	123.000	123.000	124.000	123.000	124.000	125.000	122.000	126.000	130.000	66.000	57.000	85.000	168.000	200.000	183.000	164.000	152.000	148.000	152.000	143.000	134.000	154.000	172.000	195.000	179.000	198.000	226.000	241.000	220.000	211.000	211.000	210.000	209.000
246.000	230.000	205.000	200.000	203.000	207.000	209.000	217.000	183.000	126.000	108.000	105.000	139.000	191.000	206.000	203.000	204.000	209.000	201.000	162.000	188.000	180.000	191.000	201.000	217.000	207.000	173.000	191.000	209.000	229.000	244.000	202.000	196.000	195.000	190.000	186.000	184.000	225.000	230.000	209.000	211.000	220.000	194.000	238.000	253.000	255.000	216.000	209.000	210.000	210.000	209.000	209.000	210.000	208.000	204.000	211.000	208.000	205.000	199.000	198.000	205.000	183.000	180.000	182.000	195.000	183.000	163.000	200.000	104.000	113.000	117.000	95.000	93.000	105.000	153.000	85.000	114.000	120.000	119.000	117.000	117.000	128.000	186.000	177.000	175.000	151.000	80.000	90.000	112.000	120.000	113.000	114.000	112.000	104.000	103.000	116.000	119.000	121.000	121.000	122.000	113.000	98.000	119.000	122.000	117.000	101.000	98.000	113.000	139.000	193.000	196.000	187.000	202.000	207.000	222.000	247.000	225.000	204.000	208.000	209.000	203.000	187.000	148.000	106.000	89.000	85.000	67.290	67.288	85.000	85.000	85.000	85.000	85.000	85.000	85.000	85.000	85.000	85.000	85.000	85.000	85.000	79.000	133.000	181.000	187.000	187.000	191.000	141.000	121.000	111.000	101.000	110.000	110.000	108.000	110.000	119.000	113.000	104.000	115.000	122.000	123.000	117.000	107.000	100.000	136.000	144.000	118.000	118.000	123.000	114.000	109.000	108.000	112.000	112.000	120.000	123.000	123.000	123.000	124.000	126.000	119.000	105.000	106.000	107.000	112.000	121.000	123.000	122.000	123.000	123.000	122.000	186.000	188.000	159.000	114.000	147.000	143.000	175.000	171.000	162.000	124.000	144.000	141.000	124.000	125.000	125.000	124.000	122.000	122.000	122.000	123.000	123.000	125.000	125.000	124.000	136.000	185.000	146.000	63.000	64.000	79.000	149.000	152.000	143.000	131.000	166.000	177.000	151.000	146.000	231.000	254.000	251.000	237.000	208.000	210.000	197.000	191.000	210.000	207.000	208.000	209.000
225.000	214.000	204.000	204.000	204.000	210.000	204.000	177.000	130.000	105.000	136.000	160.000	196.000	208.000	204.000	203.000	204.000	205.000	207.000	207.000	204.000	201.000	190.000	185.000	227.000	203.000	167.000	181.000	214.000	222.000	232.000	215.000	199.000	208.000	209.000	208.000	221.000	251.000	244.000	254.000	255.000	247.000	211.000	204.000	247.000	253.000	212.000	208.000	202.000	202.000	209.000	210.000	208.000	201.000	182.000	207.000	209.000	208.000	202.000	196.000	182.000	185.000	183.000	191.000	210.000	187.000	164.000	175.000	99.000	107.000	117.000	91.000	90.000	159.000	86.000	85.000	99.000	182.000	172.000	112.000	116.000	105.000	114.000	180.000	175.000	172.000	92.000	95.000	110.000	119.000	122.000	122.000	119.000	106.000	98.000	95.000	102.000	112.000	119.000	120.000	104.000	101.000	126.000	122.000	122.000	121.000	117.000	138.000	180.000	189.000	191.000	165.000	187.000	208.000	225.000	252.000	249.000	229.000	210.000	197.000	146.000	114.000	106.000	90.000	67.295	67.293	85.000	85.000	85.000	85.000	85.000	85.000	85.000	85.000	85.000	85.000	85.000	85.000	85.000	84.000	77.000	133.000	185.000	189.000	186.000	186.000	195.000	142.000	118.000	99.000	108.000	111.000	111.000	110.000	111.000	109.000	104.000	115.000	121.000	121.000	121.000	122.000	121.000	115.000	98.000	100.000	121.000	122.000	123.000	122.000	110.000	112.000	101.000	113.000	120.000	122.000	121.000	122.000	117.000	109.000	113.000	119.000	113.000	103.000	106.000	107.000	116.000	123.000	123.000	122.000	124.000	167.000	184.000	114.000	126.000	197.000	187.000	112.000	117.000	118.000	126.000	176.000	169.000	119.000	122.000	122.000	122.000	122.000	122.000	122.000	122.000	122.000	122.000	123.000	122.000	120.000	130.000	172.000	121.000	117.000	109.000	135.000	186.000	164.000	135.000	192.000	163.000	113.000	147.000	213.000	207.000	207.000	207.000	205.000	201.000	191.000	192.000	197.000	182.000	195.000	210.000
