ncols        241
nrows        103
xllcorner    12693529.7874
yllcorner    3554317.61364
cellsize     155.156523374016
NODATA_value -999999999
98 99 129 183 184 197 180 185 185 189 209 204 168 116 118 145 208 186 185 183 181 179 190 171 107 111 147 195 184 192 205 209 210 233 249 232 208 200 185 165 156 164 186 171 152 145 158 188 200 201 193 175 178 184 178 168 170 145 114 114 117 94 86 92 94 95 99 99 99 98 101 103 115 115 115 118 105 130 187 237 207 196 196 180 191 181 112 108 113 89 94 92 89 85 85 84 84 83 101 201 209 194 153 128 119 111 110 102 118 135 108 96 170 209 183 119 122 123 124 123 118 100 123 118 99 95 110 125 122 122 123 124 122 120 104 98 106 111 97 110 122 120 111 107 110 119 183 164 145 197 190 196 211 208 208 210 212 206 146 83 84 85 85 85 85 85 85 83 83 85 85 85 85 85 85 85 83 89 165 185 165 182 175 136 114 159 183 204 212 196 189 187 208 170 129 159 184 137 106 144 165 178 162 138 111 109 111 183 197 200 151 190 210 192 117 145 208 225 222 206 203 198 210 225 253 249 251 222 213 216 208 212 237 236 237 236 236 238 223 251 251
94 111 119 124 185 190 201 185 185 189 211 208 172 115 116 143 207 186 207 205 184 191 211 202 149 96 133 200 199 207 213 212 210 214 213 229 250 226 197 195 199 206 214 209 199 195 198 202 206 204 202 188 143 124 117 163 156 124 119 119 122 96 84 84 84 85 89 91 91 90 100 114 116 115 116 117 105 165 200 234 199 183 182 192 193 194 119 109 112 89 92 89 90 85 87 93 97 123 143 209 209 212 215 180 177 114 108 139 195 204 98 102 96 88 164 120 123 122 123 124 111 107 113 120 120 103 97 114 123 122 124 121 121 121 123 115 100 99 105 110 106 114 107 118 141 184 164 167 183 194 206 204 211 209 208 210 204 160 102 84 85 85 85 85 85 85 84 84 85 85 85 85 85 85 85 79 127 181 195 194 197 191 181 178 178 182 201 195 196 144 175 189 191 145 85 155 205 131 104 158 187 189 165 120 110 159 164 184 145 139 120 177 205 127 118 117 145 208 211 203 198 178 191 202 223 251 249 198 194 202 186 215 234 237 236 236 238 232 224 246 252
115 123 120 123 188 212 206 193 189 211 206 174 173 213 201 183 190 202 195 182 212 210 196 158 144 136 191 223 247 226 182 184 209 195 189 213 232 209 210 216 202 187 201 211 209 208 204 209 189 191 205 202 155 121 117 132 128 120 123 124 121 96 84 85 85 85 85 84 83 90 106 115 115 116 116 103 107 166 188 224 189 193 192 200 180 192 123 110 98 88 89 90 84 84 103 110 146 197 201 208 209 211 195 200 205 182 116 182 204 189 93 120 96 94 102 116 123 123 122 121 117 123 111 110 111 120 115 123 120 112 121 121 121 121 121 121 112 103 125 122 115 100 106 117 133 194 189 176 161 168 184 189 198 212 210 212 172 116 121 102 85 85 85 85 85 85 84 84 85 85 85 85 85 85 84 83 160 211 193 196 192 197 191 184 186 183 205 200 143 120 125 177 161 129 101 162 189 164 104 149 168 167 164 148 162 181 184 170 105 101 99 157 202 114 119 119 109 186 200 195 194 175 183 204 207 224 223 198 196 183 186 241 231 230 238 236 242 227 200 207 229
124 124 124 127 208 213 211 205 212 213 200 143 166 217 213 206 194 214 186 155 215 208 177 135 156 213 210 227 255 241 173 163 220 215 211 212 208 173 152 158 147 135 146 156 152 172 202 197 139 156 206 216 154 117 125 120 122 113 101 103 107 93 85 85 85 85 84 85 97 110 115 115 116 115 114 100 98 116 170 207 193 207 151 149 137 140 113 107 97 95 103 103 88 86 113 145 199 212 210 210 211 203 189 200 201 209 189 188 184 178 127 112 113 113 110 109 117 125 124 123 122 123 122 116 116 123 123 122 119 95 97 115 120 122 122 115 98 118 121 121 118 108 112 102 135 198 213 207 179 159 168 199 209 211 214 177 115 122 123 122 106 87 85 85 85 83 83 85 85 85 85 85 85 85 79 151 211 203 200 190 169 183 190 184 187 189 190 188 185 140 119 127 129 147 116 143 187 187 119 106 115 117 108 173 197 197 200 166 105 103 98 119 130 113 110 162 182 202 145 141 143 133 181 207 211 209 210 209 196 181 199 222 247 244 217 241 249 225 185 179 188
210 210 209 182 203 209 200 164 126 113 129 107 114 128 111 142 182 193 170 145 181 175 148 203 172 158 217 183 132 137 123 117 134 145 188 215 212 204 169 149 132 116 141 133 137 172 197 189 87 95 142 175 113 87 124 117 112 98 87 87 89 87 85 85 85 84 86 101 113 116 115 116 116 102 94 106 97 85 181 208 193 201 155 121 117 93 139 145 110 107 109 109 101 134 158 198 212 210 213 204 197 181 190 186 200 205 209 198 177 177 178 119 136 117 119 116 118 122 125 120 123 122 123 124 123 124 122 123 124 117 100 95 104 119 118 102 109 123 121 120 110 117 124 120 124 193 210 206 188 165 187 189 195 211 201 160 119 122 122 122 124 113 92 84 84 83 85 85 85 85 85 85 85 85 90 162 209 200 194 180 123 90 156 197 150 109 159 189 191 143 119 106 71 109 108 137 192 198 122 103 118 122 105 162 207 193 192 164 118 112 116 116 112 109 101 188 214 215 122 119 118 159 200 208 210 210 209 197 146 187 209 207 227 228 206 224 226 196 197 187 205
210 210 212 201 202 203 204 220 240 180 197 209 185 174 159 217 207 181 164 148 158 142 149 141 148 162 185 213 205 201 168 163 192 149 171 202 205 194 157 133 128 123 152 140 103 112 179 175 124 174 165 134 79 39 94 117 96 85 85 85 84 85 85 85 84 89 102 113 116 115 117 115 101 88 83 92 104 90 177 211 204 192 199 124 113 135 183 192 144 137 138 103 107 194 213 213 209 203 172 155 139 125 147 141 185 188 194 175 179 186 180 174 191 146 117 119 121 121 114 109 123 123 122 122 122 122 123 124 121 122 123 111 97 96 105 99 123 121 121 117 115 124 123 122 145 197 201 192 196 203 211 210 204 199 152 97 96 119 123 122 122 123 117 98 84 85 85 85 85 85 85 85 84 87 144 189 196 195 194 196 148 102 95 113 121 149 182 187 187 185 185 145 78 99 152 160 161 161 160 110 95 97 95 103 111 108 109 100 96 99 98 98 103 108 111 183 209 217 183 128 118 198 210 209 209 208 210 188 119 188 209 214 208 207 209 209 208 190 206 188 220
241 237 234 204 203 204 202 253 249 211 143 212 190 144 247 254 236 174 169 145 179 239 225 207 237 204 214 199 163 174 169 169 145 101 150 159 209 200 189 145 76 100 170 171 132 111 168 168 121 167 160 128 77 59 71 91 106 88 84 85 85 85 85 84 86 102 114 115 115 114 108 108 94 85 85 84 96 97 121 185 212 199 199 166 156 181 187 196 189 188 180 159 135 197 211 210 216 161 121 104 102 81 103 110 144 133 142 127 183 200 190 187 184 194 139 142 118 116 95 110 114 121 122 122 122 122 122 123 119 121 121 123 122 104 98 113 123 118 117 117 172 118 122 143 201 206 189 175 195 200 210 210 195 145 104 86 84 94 117 124 122 123 112 98 97 85 85 85 85 85 85 84 84 138 194 151 141 174 184 187 188 150 104 94 89 150 190 186 187 187 190 149 106 114 109 142 172 184 126 98 113 119 112 100 112 113 104 95 108 112 109 103 97 95 97 111 120 137 128 120 120 205 214 212 211 211 197 196 127 144 201 156 198 210 208 208 209 207 211 201 205
224 239 246 245 202 208 247 243 246 243 185 159 154 173 255 242 201 179 169 146 164 161 141 125 150 173 213 179 136 170 151 206 163 96 165 159 207 206 191 145 69 83 158 168 109 96 162 198 119 61 92 121 78 74 88 89 121 99 83 85 85 85 85 84 100 113 115 115 116 103 88 106 103 90 84 84 86 102 96 131 185 195 185 197 201 202 190 195 199 201 195 199 182 187 213 217 173 124 124 105 116 85 102 114 106 108 85 97 140 175 188 194 181 158 177 195 150 122 104 113 110 118 124 122 122 122 122 123 124 122 121 121 119 102 117 178 161 107 109 112 122 124 135 203 209 198 190 170 179 207 212 197 144 109 99 83 85 84 91 114 124 116 102 105 107 101 88 85 85 85 85 80 138 211 198 176 171 186 150 152 189 190 137 91 138 171 180 188 189 189 187 110 100 124 108 88 148 186 120 96 117 123 120 107 118 118 116 114 117 116 122 118 112 111 113 104 102 99 91 107 114 187 195 198 198 196 182 131 117 110 134 111 138 199 211 208 209 210 211 216 197
200 248 244 245 243 244 251 232 234 254 232 114 144 255 244 198 202 173 146 131 151 196 185 146 192 151 212 185 156 95 137 219 183 131 160 153 156 151 141 121 47 67 136 146 82 52 151 216 145 49 71 134 79 73 116 116 126 106 86 85 85 85 83 95 112 116 115 116 106 95 124 159 168 126 102 89 84 98 98 101 122 174 193 215 234 213 201 193 195 197 190 188 192 153 161 166 119 120 124 109 116 104 94 96 98 102 128 112 94 160 187 181 146 142 164 181 203 176 152 149 111 118 124 123 122 122 122 122 123 125 122 120 106 103 129 180 199 148 95 116 118 120 138 213 206 195 191 175 187 210 206 170 105 106 82 85 85 85 84 88 104 110 112 125 115 103 103 91 85 85 80 121 194 211 201 183 184 155 113 154 191 181 130 90 151 179 179 182 171 175 115 71 138 135 113 86 146 191 123 98 118 125 122 120 124 125 118 102 119 123 109 113 116 109 109 106 97 93 106 117 111 182 195 143 137 189 196 165 126 122 119 116 121 146 202 216 217 221 205 157 147
212 209 251 244 242 242 244 250 241 224 133 147 134 146 196 202 206 172 147 166 145 205 197 146 185 146 219 213 177 91 134 224 186 107 108 122 125 111 103 108 48 39 84 103 52 86 157 180 92 38 53 101 95 88 121 123 125 102 85 85 85 85 86 105 117 115 117 107 104 144 188 204 197 138 112 113 99 92 100 100 106 167 204 205 240 238 214 190 199 201 206 154 143 124 117 118 117 103 107 101 119 126 108 85 98 88 137 108 98 165 181 139 96 102 145 166 172 196 214 214 136 116 122 123 123 122 123 124 122 123 122 119 99 124 120 122 168 118 118 108 94 105 130 193 205 200 198 205 210 208 176 102 113 84 85 85 85 85 85 84 86 99 119 123 123 115 104 112 100 83 87 147 217 209 183 171 191 155 117 122 113 101 97 107 160 194 152 116 101 96 72 116 179 171 111 123 160 177 120 93 106 122 74 46 97 121 105 58 106 129 64 91 116 109 107 117 108 95 112 98 61 130 141 122 118 136 190 150 87 78 79 76 79 77 99 151 155 115 115 120 119
209 211 247 243 245 240 204 186 170 128 184 205 204 158 122 148 196 201 198 211 201 207 197 138 177 184 212 173 128 184 158 87 129 98 119 120 117 125 124 122 90 63 99 122 101 108 124 82 52 92 95 64 44 45 89 110 105 101 83 85 85 83 96 113 116 116 115 98 104 166 206 209 206 177 167 133 108 89 102 99 107 165 204 196 233 255 223 181 175 189 190 125 111 117 118 117 102 98 98 93 106 102 109 107 105 94 91 90 96 135 137 97 100 99 96 152 143 174 185 204 197 142 119 123 119 115 118 121 123 122 122 117 122 122 121 121 117 121 123 123 108 96 105 183 185 210 209 209 209 200 148 113 91 84 85 85 85 85 85 85 84 84 94 118 122 120 118 123 121 107 133 203 210 196 179 177 152 118 122 117 103 93 109 122 157 195 154 107 108 112 73 113 193 204 132 140 161 127 99 97 103 115 116 83 42 104 111 54 103 129 57 87 124 122 116 125 111 112 124 96 46 111 122 122 124 111 125 119 35 69 73 73 67 72 67 135 133 70 78 122 122
206 208 208 251 251 240 204 200 192 209 211 204 205 207 208 185 199 209 205 207 203 201 199 182 210 211 208 197 197 208 165 109 172 184 119 116 109 110 120 111 71 84 116 124 114 113 115 106 108 116 115 113 104 97 94 104 106 94 84 85 85 85 101 115 115 116 101 93 111 127 181 210 209 205 205 181 134 99 100 94 139 191 210 201 202 206 194 176 173 182 183 165 159 157 159 149 137 139 114 105 97 137 143 120 92 99 95 83 88 93 96 100 100 100 100 100 118 146 163 181 206 199 143 119 111 108 108 112 120 123 122 122 124 125 120 119 119 121 122 124 124 124 121 165 166 207 210 208 206 177 110 99 83 85 85 85 85 85 85 85 85 85 84 90 113 123 124 114 133 193 191 194 206 202 157 102 99 117 118 103 93 107 124 122 122 124 126 114 111 101 61 127 209 160 95 145 166 130 100 100 113 121 125 115 118 78 47 30 49 60 34 40 49 103 123 106 111 122 127 101 51 112 120 120 113 111 115 121 25 99 110 109 163 117 113 139 138 109 114 117 112
201 212 214 250 252 237 202 209 208 198 195 196 194 191 208 205 183 196 191 174 185 199 202 197 127 193 206 208 208 205 169 111 141 178 105 90 109 105 101 123 114 111 110 105 91 99 120 125 120 100 87 93 100 104 102 103 98 87 85 85 84 91 109 117 116 113 101 105 117 113 174 216 205 207 211 213 140 95 100 103 152 199 198 187 181 183 191 199 206 204 208 207 204 204 202 196 195 181 114 107 158 200 198 144 130 107 87 85 84 89 97 97 100 100 101 99 119 118 153 144 160 201 199 140 109 109 109 109 111 122 124 123 122 124 144 141 137 119 123 123 122 131 199 179 165 181 208 209 189 110 100 82 85 85 85 85 85 85 85 85 85 85 85 84 87 106 119 148 207 206 203 187 188 160 116 149 182 138 100 96 104 119 153 194 155 120 124 114 115 92 95 160 209 153 92 146 166 132 102 90 111 105 82 105 123 99 76 42 76 96 48 58 83 114 128 57 89 117 127 106 53 104 165 181 81 72 111 118 26 103 91 52 126 130 113 114 179 166 114 108 106
233 228 245 249 250 201 206 207 208 203 188 202 177 171 179 178 115 118 118 114 118 176 184 174 95 116 199 192 184 207 172 119 121 123 114 92 102 106 91 92 86 86 91 96 84 89 109 121 102 86 85 85 86 87 87 87 86 85 85 85 84 96 114 115 117 109 108 93 92 113 170 212 132 169 218 214 180 125 111 118 132 173 198 205 199 197 205 218 182 207 205 198 211 206 197 199 210 205 146 148 205 205 193 163 175 169 99 85 85 84 89 88 99 96 96 100 116 122 119 119 116 183 199 154 109 109 109 109 112 121 123 124 123 124 175 176 192 136 124 122 122 130 189 184 181 170 197 207 164 105 85 85 85 85 85 85 84 84 85 85 85 85 85 85 84 86 102 121 152 208 191 200 164 114 145 201 199 174 132 100 122 124 118 155 162 119 121 115 114 92 96 161 191 132 85 149 178 130 99 96 115 115 69 34 85 117 101 54 94 127 61 74 116 124 131 50 86 114 113 97 48 154 210 220 126 144 119 115 27 99 104 76 38 81 106 149 207 181 114 107 106
233 237 244 249 248 217 240 239 209 207 191 185 168 167 167 163 105 106 106 108 111 115 117 121 122 133 179 117 122 121 122 119 103 105 114 92 102 106 85 85 85 85 85 85 85 86 90 95 90 84 85 85 85 85 85 85 85 85 85 85 84 96 113 115 115 104 110 117 74 83 120 117 56 86 146 182 206 182 132 71 45 110 149 172 186 202 211 175 169 186 160 151 182 177 160 171 201 200 184 200 209 208 202 173 179 205 127 88 85 85 85 83 92 142 89 94 99 115 123 123 118 186 150 105 109 109 109 110 118 121 121 122 124 123 117 119 172 191 120 122 123 127 187 179 165 165 187 181 106 88 84 85 85 85 85 84 85 85 85 85 85 85 85 85 85 94 113 147 203 205 177 168 167 118 144 188 172 158 160 176 160 119 122 123 121 119 123 115 113 101 105 143 124 91 140 186 179 130 103 97 111 126 124 99 112 130 112 57 101 135 64 79 121 125 129 51 86 114 123 107 48 117 141 135 77 89 112 116 28 97 109 162 156 46 36 176 219 129 114 109 104
226 227 244 250 249 252 199 200 211 235 237 194 176 211 210 210 211 189 185 123 121 121 121 121 121 120 117 122 123 122 123 122 117 98 90 88 86 90 85 85 85 85 85 85 85 85 85 85 85 85 85 85 85 85 85 85 85 85 85 85 84 98 115 115 114 103 104 121 121 100 83 82 45 109 190 199 208 179 158 164 157 170 176 215 187 199 201 165 172 185 181 154 183 191 181 192 203 187 182 190 194 197 197 183 188 177 122 104 86 85 85 85 85 141 92 90 87 105 119 115 151 151 105 109 109 109 109 116 121 121 121 121 122 123 124 122 119 167 122 121 123 142 184 178 208 185 164 108 94 84 85 85 85 85 84 84 85 85 85 85 85 85 85 86 98 138 198 198 210 203 185 172 162 160 144 187 168 156 175 191 191 162 115 105 94 106 117 113 116 111 118 99 81 93 147 193 179 131 105 100 94 96 108 118 105 73 54 33 53 70 36 43 61 101 128 53 81 109 122 101 116 126 107 110 61 67 108 117 29 96 106 202 159 47 47 65 139 116 114 109 106
231 229 234 250 249 224 204 203 245 229 235 211 194 194 207 206 206 197 204 203 121 124 121 121 121 119 106 109 123 122 122 118 122 116 90 84 85 85 85 85 85 85 85 85 85 85 85 85 85 85 85 85 85 85 85 85 85 85 85 85 85 100 116 115 113 109 106 73 79 110 87 92 98 164 185 184 239 192 163 197 205 203 222 250 164 183 210 198 155 182 189 176 170 191 202 210 210 193 196 194 188 181 180 180 177 131 94 114 105 87 85 85 85 82 88 96 107 116 104 111 155 106 109 109 109 109 112 121 121 121 121 121 121 121 125 123 122 117 123 141 143 194 190 163 203 180 112 100 85 85 85 85 85 84 84 85 85 85 85 85 85 85 83 104 183 199 211 203 183 187 191 169 103 120 183 141 95 131 194 196 205 160 117 113 95 136 156 106 115 112 116 128 109 94 107 148 182 183 140 97 95 102 114 105 54 63 82 81 80 80 80 79 77 106 126 54 78 115 121 148 144 128 99 110 64 68 108 117 30 95 112 84 57 90 112 61 43 105 117 109 108
243 244 247 249 249 221 204 202 242 231 235 244 212 184 199 199 207 209 236 190 189 183 122 121 121 117 92 103 120 122 112 90 87 88 85 85 85 85 84 90 107 95 87 85 88 90 84 85 85 85 85 85 85 85 85 85 85 85 85 85 85 99 115 115 113 105 105 104 85 88 78 94 79 127 162 176 224 186 166 190 186 214 246 255 181 184 211 153 163 217 211 198 204 214 182 214 214 190 205 209 204 201 183 184 164 133 129 105 117 89 85 85 85 84 86 104 120 124 95 114 112 112 109 109 109 111 119 121 121 121 121 121 121 121 123 124 123 122 124 193 198 188 184 175 185 164 109 85 85 85 85 85 85 85 85 85 85 85 85 85 85 85 89 129 198 212 208 203 185 188 186 192 172 129 168 156 123 149 190 195 204 161 116 105 121 178 152 109 112 145 155 124 110 95 98 129 175 182 169 162 128 113 129 68 67 118 112 70 99 127 81 91 111 113 122 54 83 126 125 176 158 126 113 118 67 68 107 118 31 97 52 46 88 110 120 112 59 99 122 114 112
246 247 247 250 249 227 217 208 242 237 237 226 244 224 235 197 212 247 230 193 208 197 205 121 120 112 98 114 123 122 113 91 84 85 85 85 85 85 85 94 123 120 115 106 109 113 88 85 92 96 89 84 84 84 84 85 85 84 84 84 85 98 116 115 114 99 87 102 106 96 75 100 75 126 176 175 216 179 164 196 189 205 235 255 192 212 226 180 189 220 201 185 207 237 182 222 239 224 210 209 209 211 184 197 194 179 187 102 104 87 83 84 85 85 99 117 122 122 97 108 122 119 114 110 110 117 121 121 121 121 121 121 121 121 124 124 123 123 124 188 210 193 190 193 163 109 92 84 85 85 85 84 85 85 85 85 85 85 86 85 85 84 114 198 194 209 209 203 184 186 192 205 186 188 188 188 190 188 196 204 184 149 96 98 94 97 101 101 107 148 155 124 111 93 86 123 180 198 202 177 134 121 101 54 91 131 63 62 113 126 105 49 90 122 122 59 41 54 49 104 59 46 52 53 32 62 107 118 33 89 86 93 105 106 106 109 99 106 111 114 110
239 235 237 250 250 236 242 248 242 244 233 230 227 225 249 242 231 203 195 198 209 227 206 182 118 131 194 183 118 122 120 96 85 91 93 85 88 89 90 102 137 176 114 135 190 167 108 110 121 120 108 85 97 112 97 83 85 94 103 92 83 95 114 115 115 100 88 108 83 70 66 34 59 111 124 165 222 179 164 197 231 246 243 253 191 217 252 228 212 221 201 187 216 249 188 222 239 229 222 204 209 201 181 203 212 194 157 137 136 147 105 88 84 96 115 122 123 117 91 94 112 121 120 118 116 123 122 121 121 121 121 121 121 121 120 114 122 123 124 189 210 209 211 208 115 106 83 85 85 85 85 83 85 85 85 85 85 92 89 84 87 109 147 198 210 208 209 204 185 176 184 199 174 170 189 187 186 193 210 205 161 97 98 97 95 96 98 97 104 149 159 123 111 88 115 178 196 199 202 136 106 127 62 68 124 68 55 106 118 115 120 89 50 93 130 59 56 82 140 112 82 79 78 80 46 62 106 119 36 37 45 46 45 45 46 46 48 48 44 101 114
244 231 247 250 250 246 229 251 242 243 230 247 238 228 240 231 243 230 199 204 208 207 207 180 128 193 209 202 122 125 126 124 113 125 120 115 119 119 121 133 195 205 178 177 201 205 167 116 122 116 96 94 117 123 110 83 94 131 163 125 79 94 114 115 118 109 101 99 70 86 95 128 156 163 184 159 183 173 149 180 212 214 211 211 171 213 255 238 210 229 213 190 202 245 191 224 246 232 230 191 186 185 179 198 212 197 127 152 180 208 129 93 89 111 122 123 120 104 87 82 95 117 121 117 101 108 118 121 121 121 121 121 121 121 116 96 121 121 119 188 206 209 209 206 121 111 93 86 85 85 85 85 85 85 85 88 110 106 102 83 99 195 218 209 208 205 208 210 188 108 119 160 169 191 188 189 187 186 183 186 170 120 126 123 119 124 125 126 124 120 126 133 118 139 188 206 199 194 182 134 111 120 119 119 127 106 105 160 190 144 114 121 99 106 124 91 143 187 145 123 112 110 118 124 99 94 108 115 66 87 99 98 98 97 97 96 96 95 93 109 101
233 242 250 249 251 245 241 249 242 242 238 248 231 228 227 227 229 248 189 196 206 208 207 186 189 209 208 207 189 188 189 192 209 178 118 126 201 196 194 176 188 183 184 188 185 193 190 115 122 113 96 117 122 122 119 109 110 115 93 87 84 90 109 117 116 114 113 79 68 122 148 201 170 141 135 67 124 177 147 186 217 211 211 216 171 208 255 234 207 195 193 199 207 222 177 222 248 239 238 230 204 183 180 184 177 173 154 154 183 199 167 154 113 118 122 120 110 90 85 85 84 112 122 96 82 90 102 120 121 121 121 121 121 121 119 95 122 121 144 187 192 214 205 203 120 119 115 99 86 83 85 85 85 85 85 104 179 93 154 80 111 218 209 208 203 187 189 202 160 101 107 177 196 210 204 187 187 190 166 134 169 119 123 123 123 123 123 123 123 121 143 176 148 117 147 198 200 185 133 102 114 115 123 122 122 124 110 150 204 198 143 118 123 110 111 175 212 202 145 117 95 95 117 119 111 104 97 106 107 112 102 96 96 96 96 96 97 97 97 95 87
239 250 250 249 250 246 226 236 244 244 247 239 221 228 240 246 242 248 215 203 188 207 207 207 187 209 208 208 187 189 210 209 186 160 168 190 189 192 188 189 196 200 200 192 177 190 191 115 121 121 121 121 118 104 104 123 118 102 85 85 85 87 102 117 115 110 148 161 106 126 126 134 120 95 86 86 143 195 191 202 230 243 241 247 233 239 255 239 225 230 235 240 241 217 206 238 243 236 237 246 217 184 195 200 174 161 161 157 162 167 189 202 171 128 122 116 95 85 85 84 86 103 122 97 85 88 90 108 120 121 121 121 121 121 123 96 119 120 189 189 186 176 162 159 120 123 124 116 93 88 85 85 85 86 98 124 174 77 79 92 143 215 208 201 171 172 174 160 98 92 121 200 210 208 203 185 193 208 169 117 119 122 123 126 122 122 122 122 122 119 146 194 162 119 119 149 191 186 148 115 122 123 124 124 124 124 123 114 169 217 201 150 117 114 116 166 213 158 121 118 94 96 115 108 90 86 86 87 89 89 87 86 86 86 86 86 86 86 86 85 85
239 239 240 248 250 246 238 245 247 243 244 235 224 236 228 242 242 248 251 249 231 222 206 207 209 208 208 207 189 210 207 183 168 190 206 207 198 195 197 194 175 176 197 194 160 107 171 102 118 121 119 122 111 88 93 107 115 86 85 85 85 84 94 114 115 116 117 111 101 103 99 100 114 117 121 112 145 192 194 191 195 229 251 252 250 251 248 240 239 244 247 243 244 242 242 244 238 236 239 217 197 183 199 202 193 191 180 175 183 165 178 198 197 134 122 104 86 85 84 88 89 96 116 104 90 85 87 94 108 118 121 121 121 121 122 105 107 120 183 196 184 116 100 94 110 120 121 110 105 107 93 86 84 94 117 123 178 98 85 111 200 209 201 162 110 104 112 114 105 112 122 185 206 201 186 186 191 205 171 119 122 123 149 176 117 123 123 123 123 122 148 191 160 118 119 148 194 159 118 122 122 122 123 123 119 158 152 149 201 210 214 159 117 122 122 121 169 149 119 125 111 150 181 136 108 91 84 85 85 85 85 85 85 85 85 85 85 85 85 85 85
210 206 205 247 250 249 249 249 251 243 244 231 226 233 206 205 205 248 242 227 229 232 226 197 208 207 207 207 212 209 209 211 196 190 187 193 171 171 194 197 175 179 202 184 94 101 118 101 110 104 90 94 91 84 85 90 99 85 85 85 85 84 89 106 118 115 115 104 86 86 86 86 88 87 100 105 101 144 190 198 181 211 252 250 250 249 236 241 240 225 226 240 244 242 239 237 236 236 237 236 199 186 197 196 195 205 189 187 199 179 181 193 196 136 119 97 86 84 88 89 86 89 113 108 103 86 84 87 94 117 120 121 121 121 122 112 101 116 194 205 151 113 87 83 92 106 110 96 120 120 115 99 92 107 110 105 148 132 96 152 192 201 163 114 110 108 110 167 172 168 110 126 190 188 184 178 189 185 151 109 112 137 194 159 104 118 122 123 119 142 185 143 105 124 120 148 192 191 160 117 122 118 151 189 197 209 208 208 208 209 215 162 117 122 122 117 160 192 145 120 114 171 206 193 127 87 84 85 85 85 85 85 85 85 85 85 85 85 85 85 84
211 208 209 235 248 250 248 248 251 242 242 230 232 237 205 207 207 236 205 233 232 250 236 187 200 190 190 190 196 209 209 208 192 188 186 159 111 109 110 187 152 102 162 149 106 122 112 105 108 113 90 84 85 85 85 85 85 85 85 85 85 85 84 93 114 115 116 112 93 84 85 85 85 87 95 101 91 139 201 216 235 238 251 249 251 240 234 240 239 238 229 226 232 238 245 245 241 237 235 248 203 190 197 195 194 201 185 194 198 179 187 154 146 128 115 96 85 90 88 86 85 84 95 115 117 104 88 82 97 103 115 121 121 121 123 105 105 147 203 157 114 92 85 85 84 87 90 101 121 123 123 118 114 111 107 88 78 89 143 216 169 179 116 122 116 101 102 179 184 184 176 109 182 190 172 123 184 165 107 108 102 109 144 90 93 95 97 105 124 137 165 129 76 122 121 147 196 206 166 112 126 121 150 201 211 212 213 207 203 213 167 121 119 117 123 118 158 194 148 113 157 203 214 201 123 83 85 85 85 85 85 85 85 85 85 85 85 85 85 85 84
225 210 212 204 246 253 249 249 252 243 242 252 232 251 210 207 206 198 208 206 206 235 223 199 230 210 210 210 206 209 209 211 199 188 182 105 110 95 106 108 111 113 112 117 123 116 94 118 112 92 92 86 85 85 85 85 85 85 85 85 85 85 85 87 101 117 115 115 106 88 84 84 89 101 109 107 121 177 206 197 223 253 249 250 245 238 239 239 239 248 215 186 191 191 191 214 233 239 244 247 197 196 206 200 199 196 182 197 200 179 189 136 118 126 109 89 86 109 103 86 83 84 82 97 120 121 109 100 113 105 117 120 121 122 118 97 110 188 153 103 105 85 85 85 85 85 82 95 110 120 123 123 123 123 113 85 89 117 216 203 117 151 109 117 106 111 132 190 185 186 164 105 129 192 177 127 119 115 113 111 121 124 116 116 96 113 119 121 141 176 153 134 66 110 144 195 196 199 154 99 126 119 147 199 210 209 209 202 200 187 142 119 104 106 113 154 191 192 147 157 189 186 189 197 127 82 85 85 85 85 85 85 85 85 85 85 85 85 85 84 83
252 211 205 207 235 234 242 243 245 244 242 239 217 249 209 209 208 206 208 207 205 185 203 210 224 208 208 207 205 207 209 209 202 187 192 175 93 118 107 119 99 107 107 122 119 103 86 111 121 116 117 90 84 85 85 85 85 85 85 85 85 85 83 83 92 113 115 116 115 103 89 90 95 95 97 137 184 182 193 201 226 253 250 248 232 230 224 202 207 204 186 191 201 200 193 214 226 223 225 226 216 211 211 209 209 193 182 196 199 182 188 140 116 116 107 95 104 120 119 108 100 90 83 85 112 121 123 120 122 120 120 107 116 120 102 102 148 190 105 109 88 85 85 85 85 85 85 84 92 105 119 122 122 123 116 100 104 149 243 203 114 93 98 97 115 183 192 185 184 164 114 123 131 190 188 181 115 111 111 111 127 164 120 119 95 109 115 129 122 107 87 98 74 109 145 194 194 193 162 101 125 124 119 159 216 211 213 200 199 206 191 149 100 103 150 198 213 201 151 117 176 203 148 124 118 92 83 84 84 84 84 84 84 85 85 85 84 83 87 95 104
229 200 195 208 207 193 228 231 233 241 245 203 186 229 200 205 208 204 205 201 191 203 208 208 197 198 208 207 184 179 207 209 202 171 194 177 113 114 85 91 88 87 101 107 110 86 91 120 119 114 120 104 83 85 85 85 85 85 85 85 85 106 162 150 105 113 111 115 114 113 107 121 164 161 139 127 170 179 185 200 228 254 251 240 229 210 184 195 200 183 190 201 198 198 197 202 227 242 236 225 224 200 185 192 203 188 191 200 197 184 189 140 120 116 104 109 121 123 122 122 118 112 105 107 116 121 121 121 121 119 119 102 105 101 86 142 191 149 107 95 85 85 85 85 85 85 85 85 84 87 104 124 123 122 123 120 152 172 210 196 98 108 110 114 167 179 185 187 179 113 122 126 143 189 190 180 115 107 98 99 97 109 175 151 92 108 134 178 119 109 82 120 136 160 181 178 171 166 148 110 123 122 119 146 187 193 210 209 209 208 209 202 143 142 204 212 212 201 150 112 173 206 146 119 114 106 108 106 107 107 101 98 94 90 88 88 94 101 104 107 114
197 195 203 209 209 209 225 228 234 220 231 215 214 186 193 188 204 185 166 197 206 209 208 208 209 189 208 208 184 120 177 206 160 96 160 173 119 84 85 85 85 85 84 84 86 85 87 99 85 88 103 110 83 85 85 85 85 85 85 85 85 125 194 115 121 119 113 116 115 112 128 182 209 207 183 159 191 208 208 210 210 215 206 205 228 216 194 189 182 189 201 199 196 196 198 196 222 241 243 233 215 201 191 184 184 182 184 192 200 189 189 137 121 123 107 107 104 108 115 122 123 122 121 122 122 121 121 121 121 119 119 116 107 90 125 170 145 102 100 86 85 85 85 85 84 85 85 85 85 84 100 123 120 120 122 121 231 118 177 152 104 104 97 173 169 139 151 184 180 118 124 130 196 186 176 166 117 116 114 115 117 125 179 168 90 104 119 156 120 109 85 129 133 150 183 191 175 176 148 103 124 122 122 121 117 145 199 210 197 194 210 209 208 208 208 209 210 210 197 183 197 212 200 146 116 119 114 162 145 115 118 115 112 109 108 110 107 155 190 228 208
193 194 205 209 209 210 195 192 196 192 196 242 254 197 202 188 189 182 101 199 208 208 208 208 209 199 198 208 189 123 118 176 178 117 119 115 115 86 85 85 85 85 85 85 85 85 85 88 87 85 85 90 85 85 85 85 85 85 84 97 168 208 205 168 115 120 123 119 130 182 190 209 207 193 180 192 211 210 209 208 209 204 214 229 225 210 197 194 176 184 198 201 196 195 198 198 197 228 223 192 197 201 198 201 192 184 185 182 182 189 202 181 133 125 109 106 149 121 108 108 110 117 122 122 121 121 121 121 121 120 119 123 106 96 177 171 107 99 88 85 85 85 83 85 85 85 85 85 85 84 110 119 99 105 123 145 241 121 106 101 115 94 102 180 182 125 94 142 174 117 123 126 174 164 109 113 117 115 110 110 112 101 109 149 90 98 98 106 125 107 99 183 130 147 168 166 166 164 138 99 127 125 124 123 118 146 191 176 173 189 197 212 209 209 197 184 198 210 209 208 208 209 208 207 205 205 205 206 204 203 204 188 178 178 176 192 197 230 248 250 246
214 200 203 208 210 210 201 198 198 196 200 227 242 195 208 212 192 156 116 180 207 208 208 202 207 210 188 202 206 137 121 118 120 110 115 97 98 85 85 85 85 85 85 85 85 85 85 85 85 85 85 85 85 85 85 85 85 85 84 114 215 207 207 207 209 185 101 129 190 202 204 204 180 180 190 210 225 251 248 233 205 195 198 237 244 228 200 197 216 197 185 192 202 202 201 198 194 203 196 182 194 198 196 203 191 183 195 199 200 206 212 191 117 94 89 133 193 179 124 110 143 152 120 117 123 122 121 121 121 121 122 116 96 149 140 142 106 89 84 85 84 85 83 85 85 85 85 85 85 84 117 105 83 89 110 200 171 122 146 141 125 100 113 147 174 158 108 100 142 115 123 122 118 109 91 100 105 110 109 109 110 111 112 104 94 102 102 104 125 111 103 181 132 127 103 105 100 90 97 102 147 173 119 119 112 134 180 172 173 187 184 183 184 185 187 187 198 210 209 206 204 231 252 249 250 247 242 244 247 249 251 246 245 247 246 246 248 252 252 217 198
240 203 196 198 202 204 197 195 195 197 202 199 208 191 207 203 171 122 119 164 202 204 204 185 203 209 190 194 191 201 133 122 124 113 113 84 86 85 85 85 86 91 90 85 85 85 85 85 85 85 85 85 85 85 85 85 85 85 86 113 189 188 209 206 196 183 177 192 209 200 203 205 199 200 200 209 221 252 249 252 235 205 199 184 192 218 231 211 200 201 196 176 176 188 191 199 201 205 192 186 196 197 183 194 190 189 199 198 194 192 192 188 166 142 147 176 182 187 175 128 166 203 130 106 107 117 121 121 121 121 122 100 102 179 117 104 90 85 85 85 85 84 85 85 85 85 85 85 85 84 106 88 85 91 173 212 144 120 191 201 180 116 116 108 145 95 107 120 111 120 122 122 123 121 93 95 95 93 100 98 99 99 99 98 94 96 95 100 123 124 151 182 135 121 113 118 112 99 99 101 143 194 167 114 142 188 183 175 169 187 155 112 113 111 121 118 151 200 212 198 207 233 238 240 233 230 232 236 231 228 231 233 237 240 246 251 224 205 192 120 139
236 200 194 186 161 195 194 191 191 192 201 202 208 196 202 195 141 112 118 114 163 168 168 170 168 202 197 200 206 196 188 123 123 106 104 85 85 85 85 88 102 118 114 85 85 85 85 85 85 86 85 85 85 85 85 85 85 85 88 112 119 130 193 201 191 205 189 209 203 201 201 205 212 207 217 251 248 251 252 252 249 232 207 201 185 186 190 199 199 196 184 140 108 155 197 187 186 189 183 194 205 199 181 186 188 194 201 197 190 185 186 188 200 196 195 174 156 180 196 136 169 200 179 128 110 110 119 121 121 123 107 98 158 132 107 92 85 85 85 85 83 84 85 85 85 85 85 85 85 85 85 84 92 105 203 209 193 152 188 212 187 119 122 109 104 112 103 105 124 123 122 122 110 106 102 109 112 102 128 121 126 126 126 123 97 108 110 108 123 121 141 202 125 68 143 192 183 150 98 99 140 186 162 117 120 118 120 112 106 114 92 85 87 102 122 123 119 149 203 201 194 201 189 208 233 233 235 229 228 235 237 235 236 240 221 144 104 156 136 95 90
225 206 205 195 127 162 194 194 192 206 205 203 205 205 194 207 203 125 138 120 114 117 117 117 114 166 174 166 170 172 176 123 122 102 84 85 85 85 89 110 114 106 111 93 85 85 85 86 90 94 98 93 91 88 86 85 85 86 98 123 120 130 194 206 191 207 190 180 191 209 204 208 219 252 249 251 240 205 212 243 251 236 206 207 153 115 175 197 205 198 183 133 82 126 190 200 201 195 185 186 185 186 194 193 184 196 200 197 205 194 189 188 200 206 192 185 180 186 180 133 132 125 139 129 121 108 117 121 124 113 103 114 138 108 90 85 85 85 85 85 83 85 85 85 85 85 85 85 85 85 84 89 107 116 107 207 190 164 191 204 187 122 123 120 124 113 110 107 118 123 123 123 98 92 110 116 116 115 118 118 118 117 114 117 96 104 106 106 124 110 84 188 133 80 184 193 186 148 98 100 122 117 119 121 121 121 122 115 108 121 103 85 89 109 124 124 119 151 179 156 159 164 186 205 200 196 197 189 213 239 239 217 200 205 145 105 106 112 114 96 85
186 190 196 197 137 114 147 148 147 167 192 196 194 210 197 196 208 183 198 153 139 117 117 118 122 119 100 112 116 117 120 122 123 109 85 85 85 86 103 121 113 121 103 108 85 85 86 95 101 112 168 105 108 120 115 90 85 88 112 122 123 136 213 209 192 179 183 197 213 212 208 219 252 250 252 238 202 207 208 234 235 209 209 187 132 97 108 121 166 172 148 94 86 121 186 199 200 190 134 155 209 192 186 184 180 187 198 206 202 197 150 163 207 197 146 128 178 158 117 102 99 101 115 121 122 108 117 125 111 97 109 121 106 101 88 85 85 85 85 84 85 85 85 85 85 85 85 85 85 85 88 102 113 150 152 197 160 118 155 149 157 123 122 122 123 123 117 124 124 122 123 124 100 103 95 91 92 97 101 99 103 99 99 98 94 96 95 99 124 112 90 190 138 77 201 212 204 161 101 98 119 121 121 121 121 121 122 115 106 150 183 127 84 108 124 124 120 153 166 109 102 106 92 135 191 190 193 188 188 194 194 193 193 193 196 138 96 95 101 93 85
158 146 138 152 127 116 103 123 105 101 135 151 171 205 211 197 194 202 209 211 193 133 109 109 115 119 106 118 122 121 122 122 122 112 85 85 86 93 107 179 194 129 115 103 92 85 91 100 105 195 212 213 210 186 155 103 100 97 122 128 195 210 196 182 181 188 208 213 211 210 210 208 218 253 252 237 186 198 200 228 223 187 181 187 161 99 116 135 173 152 102 91 84 125 177 184 208 157 96 112 161 203 200 192 189 194 185 189 157 133 121 119 172 194 137 112 133 119 96 93 92 95 108 121 124 107 116 112 94 100 161 123 104 91 85 85 85 85 84 84 85 85 85 85 85 85 85 85 85 85 95 113 160 187 182 187 120 117 104 104 116 123 123 122 122 123 124 123 123 123 124 115 96 117 103 126 93 103 104 104 107 102 101 101 94 96 99 99 124 110 91 195 152 84 187 207 202 164 97 98 122 120 121 120 120 120 119 111 131 203 193 126 84 103 116 122 119 152 165 106 106 105 139 194 199 195 196 196 195 195 195 196 196 196 196 195 184 127 90 86 85
174 149 131 138 146 155 146 180 147 113 100 103 167 208 209 210 195 198 202 193 197 201 128 116 107 108 101 116 116 110 114 122 122 114 87 85 95 118 123 207 200 177 106 99 98 86 103 98 96 187 207 192 179 178 155 92 98 119 122 129 204 181 181 193 210 209 205 210 209 210 211 210 209 208 210 206 188 181 193 197 180 181 193 210 207 190 148 110 114 126 113 93 82 129 190 180 176 162 134 110 108 159 208 181 175 193 187 199 160 117 116 104 121 132 118 117 121 114 107 109 116 97 131 115 112 122 110 97 100 158 149 112 95 86 85 85 85 85 85 85 85 85 85 85 85 85 85 85 84 91 103 113 209 187 167 188 123 106 112 123 121 121 123 124 122 123 122 122 122 123 123 103 103 103 103 185 121 123 122 122 121 117 114 116 96 102 108 106 123 111 92 215 174 111 120 177 175 165 103 120 171 125 119 115 108 108 108 106 134 184 142 78 85 83 95 120 119 151 163 105 107 103 134 186 196 195 195 196 183 182 197 196 197 182 184 197 193 177 163 113 80
210 204 201 203 200 211 218 213 209 138 114 112 143 194 208 208 210 198 187 199 204 209 131 121 123 118 102 104 100 84 105 121 122 115 94 96 97 194 198 194 197 170 114 114 98 94 105 110 95 164 180 183 190 169 113 119 98 95 120 108 158 187 206 212 213 210 209 209 209 210 211 212 204 203 202 201 186 186 182 181 188 205 208 208 209 206 158 91 96 106 116 92 84 89 104 149 192 181 187 154 100 116 118 107 112 149 174 186 153 117 118 97 91 102 110 118 121 120 119 120 122 114 153 164 153 117 94 96 157 151 113 99 89 85 85 84 85 85 85 85 85 85 85 85 85 85 85 85 85 99 147 151 206 193 186 145 107 112 122 121 121 121 121 123 124 124 122 123 123 124 122 107 116 107 106 147 147 107 108 108 108 106 106 105 93 97 102 100 124 115 87 217 188 52 83 116 129 184 168 166 171 177 122 113 109 110 107 105 119 114 98 83 85 85 97 120 120 144 187 152 106 104 105 133 186 200 194 184 184 193 201 197 197 183 172 174 177 189 140 88 83
206 210 210 211 209 208 212 210 214 166 125 117 109 142 200 209 209 209 193 205 168 164 127 121 122 118 116 103 103 85 97 119 122 119 106 111 117 196 210 210 210 155 116 114 100 117 114 110 95 162 190 206 203 165 119 121 119 92 93 102 119 191 212 209 208 209 209 210 211 210 194 211 205 197 178 188 191 179 185 205 208 207 208 209 204 192 191 158 119 144 108 89 84 86 88 99 140 175 183 186 144 105 105 92 94 101 106 165 206 150 113 94 87 95 111 122 121 121 121 121 121 117 163 206 177 147 110 141 144 109 104 92 85 85 85 85 85 85 85 85 85 85 85 85 85 85 85 84 92 109 192 204 204 157 157 100 106 122 121 121 121 121 121 121 124 123 123 123 122 123 123 120 115 103 116 104 99 106 97 107 106 103 104 105 95 99 111 112 123 116 87 209 190 61 71 94 125 182 164 149 154 160 151 102 110 116 119 104 117 115 107 86 84 86 100 120 123 119 125 162 145 101 105 133 175 173 180 184 184 185 183 196 205 202 151 103 116 123 124 102 83
195 197 196 211 227 216 202 199 200 190 129 109 115 106 183 213 204 204 187 167 123 115 121 119 115 105 102 102 111 90 98 118 122 119 116 102 201 192 209 207 203 99 116 130 119 195 189 107 103 181 187 202 200 200 163 101 94 104 103 125 126 125 191 209 209 209 210 204 202 205 198 199 212 199 166 126 203 200 197 196 190 204 181 177 188 182 193 211 173 87 87 85 85 86 92 98 127 183 193 178 179 182 137 92 98 83 86 107 128 127 118 96 87 96 113 123 118 119 121 121 121 120 128 172 169 167 173 150 107 104 96 85 85 84 85 85 85 85 85 85 85 85 85 85 85 86 77 79 106 116 199 214 155 122 108 107 113 118 121 121 121 121 122 119 114 118 123 122 123 123 123 123 116 115 117 110 111 116 104 124 116 109 110 116 97 104 124 125 122 120 116 197 194 83 103 66 80 144 143 92 118 120 120 118 107 113 145 92 104 108 110 99 83 91 108 119 123 116 92 80 83 86 87 96 106 107 112 113 145 160 112 149 200 211 155 106 118 122 115 94 83
220 204 191 226 254 221 199 195 194 179 118 97 112 113 147 171 161 159 152 121 120 122 117 111 105 110 114 108 116 108 112 125 122 134 124 113 175 186 201 196 167 99 107 166 189 181 186 188 133 182 180 202 202 190 88 95 112 200 182 183 119 125 192 210 213 213 209 201 165 189 206 189 201 202 198 184 211 210 201 153 130 179 152 112 123 119 144 214 203 151 79 85 88 91 88 97 134 185 188 183 179 182 178 179 148 94 93 142 194 151 114 96 91 101 110 112 150 143 115 121 121 120 114 106 144 181 195 135 102 98 87 85 83 84 85 85 85 85 85 85 85 85 85 85 85 79 157 195 127 109 196 200 120 110 96 112 113 113 120 121 121 121 114 106 105 113 118 123 124 123 119 122 123 124 118 117 118 117 115 122 116 111 109 113 97 103 121 122 122 126 175 188 201 127 108 108 74 59 66 98 112 111 111 108 86 68 59 60 58 59 65 71 79 96 113 122 121 108 89 84 85 85 86 96 110 105 104 111 113 121 117 148 200 210 209 161 116 123 107 87 84
249 238 228 245 253 237 217 204 199 192 167 112 109 115 113 117 117 116 117 120 120 115 110 111 118 120 121 113 108 112 111 114 118 186 181 123 154 179 185 186 171 99 175 200 207 189 189 189 194 209 184 182 180 182 103 108 137 214 211 206 126 135 213 204 236 208 208 205 173 176 175 180 180 196 199 199 202 211 203 153 110 168 118 116 104 121 136 197 205 163 94 82 85 85 84 90 136 189 192 208 199 187 180 182 190 158 109 150 197 155 108 111 99 142 198 193 200 204 149 111 117 154 124 90 107 154 182 131 97 88 85 83 83 85 85 85 85 85 85 85 85 85 85 85 85 80 137 229 187 171 196 149 117 97 105 102 105 115 122 121 121 110 105 109 114 117 114 119 119 123 118 124 123 122 123 123 123 123 124 123 123 119 113 114 96 102 123 122 122 123 148 187 202 123 97 108 106 91 80 70 68 62 59 59 60 64 73 75 73 70 68 67 69 65 73 106 119 100 83 85 85 85 88 92 97 99 85 88 104 119 112 148 199 210 213 167 112 149 178 127 93
245 250 250 251 253 255 223 202 197 195 208 155 118 114 118 121 123 122 121 122 110 100 104 105 106 105 106 101 91 120 125 97 113 179 192 199 182 187 203 205 207 132 198 208 209 196 203 208 206 207 185 181 187 210 138 128 195 209 209 208 192 215 211 196 179 205 206 207 200 150 88 101 158 155 111 121 184 202 192 159 99 123 121 115 91 90 95 141 208 184 178 134 80 85 84 87 128 198 209 201 189 188 188 194 186 169 151 174 205 205 191 176 174 194 211 209 207 208 202 185 136 139 158 163 172 171 143 105 88 85 83 83 85 85 85 85 85 85 85 85 85 85 85 85 85 82 98 140 207 222 152 116 100 107 115 107 103 102 112 123 113 104 114 122 122 120 152 151 152 126 122 120 120 123 123 122 123 123 123 122 123 123 123 120 103 104 122 122 122 121 120 189 202 124 106 105 93 106 126 122 86 62 78 83 80 87 101 112 121 123 122 112 114 119 80 65 87 89 85 85 85 85 85 86 85 85 85 85 95 112 114 146 198 209 212 168 112 152 185 150 125
245 248 249 234 228 228 233 216 198 197 201 186 133 110 114 114 115 119 123 124 101 91 119 130 105 101 94 98 111 188 210 157 139 179 210 211 212 197 197 203 198 205 194 215 215 200 192 195 182 218 190 189 195 212 214 194 210 209 210 209 194 195 210 210 180 161 178 185 181 181 117 101 98 155 99 117 121 185 210 172 107 105 105 93 96 84 85 124 210 183 188 158 78 85 84 87 127 201 207 166 118 106 137 216 210 197 179 192 207 210 198 184 193 210 212 208 230 228 208 211 173 151 174 192 187 146 105 88 85 83 83 85 85 85 85 85 85 85 85 85 85 85 85 85 78 137 167 125 147 153 117 107 100 116 113 115 117 109 104 109 105 116 122 121 121 113 198 203 197 129 120 109 108 113 117 115 119 120 122 123 123 122 123 123 120 111 123 123 122 123 154 181 205 143 145 91 107 122 108 106 60 79 96 114 123 122 121 120 120 120 121 123 124 123 115 78 70 85 86 86 85 87 92 89 87 91 88 84 87 100 111 137 189 201 189 163 149 147 148 143 105
247 251 255 225 206 207 223 219 204 194 191 158 120 135 146 146 146 119 114 123 104 114 182 206 169 150 131 150 180 200 206 217 202 186 200 209 208 211 195 202 198 198 185 234 233 195 181 184 192 203 214 214 211 209 208 210 210 210 207 207 183 181 211 207 197 153 90 158 204 209 183 116 92 91 94 115 114 122 175 117 122 114 101 97 86 85 86 117 191 185 187 159 79 85 84 89 109 125 124 124 116 95 128 196 189 186 183 198 211 208 195 181 181 183 186 193 205 210 204 191 177 190 200 149 118 108 89 85 84 84 85 85 85 85 85 85 85 85 85 85 85 85 85 78 132 183 195 138 115 113 114 99 114 120 118 119 122 123 108 101 98 110 120 123 115 149 201 205 159 126 116 109 108 108 106 98 100 104 106 110 116 121 123 122 123 118 125 124 123 121 100 163 200 164 129 87 127 118 127 88 70 110 122 120 120 120 120 120 123 123 124 123 123 123 107 92 119 59 87 95 104 128 175 141 113 172 138 89 89 115 165 153 147 148 150 151 165 191 207 200 180
244 250 235 212 206 209 207 209 215 166 141 122 103 169 199 195 198 167 146 118 136 159 201 211 212 200 177 208 203 211 224 210 209 188 182 198 194 229 198 182 180 183 180 226 231 240 197 207 212 213 211 210 209 209 210 211 212 204 195 196 206 181 194 192 179 158 103 136 202 198 175 115 93 94 99 101 118 114 114 123 130 189 185 155 96 85 87 102 135 191 172 110 89 84 85 84 94 118 121 122 113 95 112 126 125 121 110 146 195 189 191 196 205 201 188 180 180 182 181 182 191 203 192 138 98 90 85 85 85 85 85 85 85 85 85 85 85 85 85 85 85 85 79 132 181 189 191 138 115 122 103 103 108 117 123 122 121 110 107 115 112 103 102 112 155 195 153 154 121 115 111 112 111 111 113 106 105 105 104 107 108 107 116 121 120 123 122 123 124 122 107 166 185 160 129 85 123 147 177 142 103 121 120 122 122 122 123 124 123 123 124 123 124 125 122 126 130 66 57 85 168 200 183 164 152 148 152 143 134 154 172 195 179 198 226 241 220 211 211 210 209
246 230 205 200 203 207 209 217 183 126 108 105 139 191 206 203 204 209 201 162 188 180 191 201 217 207 173 191 209 229 244 202 196 195 190 186 184 225 230 209 211 220 194 238 253 255 216 209 210 210 209 209 210 208 204 211 208 205 199 198 205 183 180 182 195 183 163 200 104 113 117 95 93 105 153 85 114 120 119 117 117 128 186 177 175 151 80 90 112 120 113 114 112 104 103 116 119 121 121 122 113 98 119 122 117 101 98 113 139 193 196 187 202 207 222 247 225 204 208 209 203 187 148 106 89 85 83 84 85 85 85 85 85 85 85 85 85 85 85 85 85 79 133 181 187 187 191 141 121 111 101 110 110 108 110 119 113 104 115 122 123 117 107 100 136 144 118 118 123 114 109 108 112 112 120 123 123 123 124 126 119 105 106 107 112 121 123 122 123 123 122 186 188 159 114 147 143 175 171 162 124 144 141 124 125 125 124 122 122 122 123 123 125 125 124 136 185 146 63 64 79 149 152 143 131 166 177 151 146 231 254 251 237 208 210 197 191 210 207 208 209
225 214 204 204 204 210 204 177 130 105 136 160 196 208 204 203 204 205 207 207 204 201 190 185 227 203 167 181 214 222 232 215 199 208 209 208 221 251 244 254 255 247 211 204 247 253 212 208 202 202 209 210 208 201 182 207 209 208 202 196 182 185 183 191 210 187 164 175 99 107 117 91 90 159 86 85 99 182 172 112 116 105 114 180 175 172 92 95 110 119 122 122 119 106 98 95 102 112 119 120 104 101 126 122 122 121 117 138 180 189 191 165 187 208 225 252 249 229 210 197 146 114 106 90 85 85 85 85 85 85 85 85 85 85 85 85 85 85 85 84 77 133 185 189 186 186 195 142 118 99 108 111 111 110 111 109 104 115 121 121 121 122 121 115 98 100 121 122 123 122 110 112 101 113 120 122 121 122 117 109 113 119 113 103 106 107 116 123 123 122 124 167 184 114 126 197 187 112 117 118 126 176 169 119 122 122 122 122 122 122 122 122 122 123 122 120 130 172 121 117 109 135 186 164 135 192 163 113 147 213 207 207 207 205 201 191 192 197 182 195 210
208 209 209 208 208 213 202 139 136 165 189 209 211 209 209 204 202 203 210 206 198 220 226 217 237 206 181 197 203 230 250 255 234 211 209 207 246 253 252 252 240 209 209 207 234 239 212 211 194 184 200 206 196 204 178 189 205 200 182 184 190 206 200 181 204 188 149 148 104 99 103 86 92 81 85 85 85 98 115 115 115 124 175 158 151 99 102 99 106 105 105 105 102 107 107 105 101 100 102 106 95 97 109 108 108 106 131 186 179 180 176 164 185 213 226 255 254 236 160 112 111 90 87 85 83 83 85 85 85 85 85 85 85 85 85 85 85 85 84 80 147 192 151 170 188 186 154 129 104 108 119 114 109 114 108 102 110 122 123 121 121 117 116 122 111 115 118 121 124 117 113 111 120 93 105 115 123 117 98 88 95 118 116 113 109 104 106 110 121 124 117 111 190 139 118 165 186 142 122 122 122 117 118 122 123 122 122 122 122 122 122 122 122 122 123 123 122 119 123 124 123 122 118 118 142 176 115 120 138 191 209 210 205 164 114 114 115 119 145 187 189
208 208 208 208 209 202 191 168 184 212 208 222 218 207 210 206 200 200 209 208 215 237 252 254 254 235 204 202 203 222 249 251 254 231 225 222 247 238 235 237 211 209 211 210 208 207 209 208 210 183 151 191 198 201 170 175 184 183 189 207 210 207 203 176 174 159 103 100 92 108 144 85 145 82 86 86 85 88 110 116 115 114 122 173 107 110 109 108 113 109 104 96 111 177 175 160 102 106 106 106 106 106 106 106 106 108 113 140 187 163 119 112 100 130 189 201 201 167 111 100 88 85 85 84 83 85 85 85 85 85 85 85 85 85 85 85 85 84 81 133 203 204 133 158 202 198 142 108 102 117 122 120 118 107 103 92 93 100 111 122 119 152 162 123 117 120 157 123 119 102 103 100 166 128 88 94 108 102 84 84 86 117 111 111 109 121 112 106 107 108 95 86 153 173 128 103 181 184 99 118 118 118 118 117 123 124 120 123 123 123 123 122 123 124 124 124 124 124 125 124 122 125 124 120 134 169 113 109 119 135 196 210 204 165 112 108 113 122 118 137 186
204 207 208 207 208 206 192 183 202 209 221 249 227 205 206 225 231 208 201 204 234 248 247 250 250 254 233 227 231 210 223 247 252 252 252 254 240 213 207 205 207 207 199 203 205 205 202 198 196 178 132 191 199 197 150 141 177 202 206 202 203 195 163 161 156 185 138 134 106 117 120 109 109 96 96 96 85 85 95 119 116 115 115 109 100 116 119 121 114 99 100 115 135 189 185 186 174 117 122 122 122 122 121 118 117 117 118 117 118 118 109 102 104 97 99 104 106 103 91 86 85 85 84 83 85 85 85 85 85 85 85 85 85 85 85 85 84 83 144 192 155 167 179 180 191 198 143 97 111 122 122 122 109 111 94 79 82 85 90 99 108 185 207 169 129 118 179 168 126 108 109 94 122 121 88 83 87 88 85 85 84 105 113 111 111 121 112 118 99 128 89 67 96 126 161 125 164 123 63 110 108 108 112 111 119 124 142 123 123 120 117 107 117 122 121 121 121 121 121 121 121 121 118 100 88 100 92 87 108 138 198 209 201 160 113 106 112 122 122 113 127
238 223 205 206 208 211 206 199 204 225 248 253 241 233 233 246 252 235 226 228 243 247 247 249 252 253 250 249 253 220 205 228 234 249 251 253 217 210 209 198 198 199 173 190 195 196 198 199 199 177 205 194 184 181 104 99 171 203 180 171 181 184 192 193 170 185 214 188 174 183 212 212 211 177 130 118 90 86 105 122 123 115 115 116 122 121 115 98 99 116 123 133 179 113 104 108 107 104 101 102 101 98 99 102 100 105 119 115 116 111 93 86 89 95 100 98 91 86 85 85 85 84 83 85 85 85 85 85 85 85 85 85 85 85 84 86 90 138 191 197 138 154 191 187 192 160 111 107 113 115 120 108 114 101 123 153 102 83 84 83 100 190 211 209 135 112 187 197 129 114 119 92 81 81 85 85 85 84 85 85 85 91 116 114 116 121 110 109 106 149 104 68 98 80 119 133 121 65 77 105 111 109 115 121 123 125 170 117 109 101 94 85 96 116 122 121 121 121 121 121 121 121 117 94 84 84 84 84 90 140 213 211 183 111 120 116 119 121 120 117 139
252 245 236 240 225 207 209 209 208 217 239 250 251 252 252 251 249 248 249 249 251 247 245 249 224 220 243 251 234 212 210 209 207 226 248 255 219 207 208 191 197 200 179 196 200 196 196 197 187 145 152 187 191 186 122 115 140 184 161 160 189 209 210 209 203 182 196 170 148 155 174 173 172 187 188 125 106 95 120 128 121 123 116 115 115 122 105 113 124 121 129 179 104 101 101 99 98 95 91 92 92 92 90 89 91 103 117 115 115 115 112 138 165 75 33 55 89 85 85 85 84 83 85 85 85 85 85 85 85 85 85 85 85 83 88 99 144 184 188 179 172 182 187 193 160 113 100 111 111 115 108 111 108 84 97 114 93 84 85 86 106 180 208 214 173 157 204 197 123 114 103 87 85 85 85 85 85 85 85 85 85 85 99 109 116 123 119 119 114 95 109 74 88 81 74 88 83 74 98 97 111 112 120 123 122 120 106 100 82 83 84 85 85 95 117 122 121 121 121 121 121 121 117 94 84 85 85 84 88 122 186 208 186 120 109 101 119 114 106 112 141
252 253 255 243 219 211 207 206 213 208 228 253 251 252 255 248 247 252 250 245 242 248 253 254 214 197 221 232 213 206 208 208 208 208 226 234 216 209 209 179 193 201 179 183 192 188 187 189 171 104 96 166 199 203 115 108 107 153 161 180 208 207 209 202 169 164 142 149 106 117 116 110 99 173 180 170 149 114 132 188 126 121 121 115 126 181 121 123 121 120 110 96 99 97 91 81 37 40 40 40 40 39 55 123 120 122 114 115 118 120 138 189 187 166 108 91 84 85 85 85 85 85 85 85 85 85 85 85 85 85 85 84 85 93 104 146 185 186 185 183 183 185 190 157 122 101 109 121 119 107 110 110 140 162 105 79 84 85 83 101 115 131 180 208 205 204 196 188 117 100 88 85 85 85 85 85 85 85 85 85 85 85 84 90 98 106 108 105 114 97 118 76 143 122 87 115 124 68 104 100 102 121 123 122 122 114 93 82 85 85 85 88 89 91 92 118 122 122 122 121 121 121 117 90 84 85 85 85 86 96 132 189 189 161 83 82 82 90 88 99 122
224 231 232 214 184 198 209 214 192 202 253 255 255 244 218 228 252 236 238 248 245 254 236 223 214 210 208 205 207 208 211 210 206 203 200 205 210 199 192 171 174 154 137 154 183 159 156 160 180 144 113 97 184 200 137 110 118 96 156 189 207 208 198 174 95 94 89 110 115 94 109 96 83 99 151 162 99 121 191 186 188 127 114 122 179 169 113 122 111 98 98 93 90 97 111 120 124 126 123 122 135 181 118 121 122 118 114 117 125 118 137 193 169 113 96 84 85 85 85 85 85 85 85 85 85 85 85 85 85 85 84 88 99 142 180 182 187 185 184 186 189 190 196 154 104 105 119 122 109 109 114 94 140 131 91 84 85 85 85 109 109 98 164 206 210 211 189 189 170 150 91 79 84 85 85 85 85 85 85 85 85 85 85 84 83 86 86 83 103 97 123 82 146 144 91 121 111 77 96 104 100 123 122 123 121 111 90 89 84 85 90 93 89 84 85 96 115 116 117 120 122 122 113 86 85 85 85 85 84 94 146 195 204 156 78 85 83 79 86 100 123
199 199 210 184 173 207 216 168 141 158 217 208 199 205 215 236 255 214 221 251 235 239 200 195 194 200 212 210 211 203 187 189 189 184 186 202 210 197 193 191 176 117 98 133 158 142 143 138 173 194 119 98 184 197 184 114 109 115 156 198 205 193 161 167 108 122 101 99 102 85 86 89 85 89 81 93 176 164 170 175 176 191 188 118 120 112 115 115 115 98 84 95 115 117 122 120 129 180 117 120 131 177 117 122 121 114 116 118 136 191 170 117 119 102 85 85 85 85 85 85 85 85 85 85 85 85 85 85 84 84 94 109 146 186 189 187 185 197 209 199 156 129 130 115 103 115 123 109 108 120 109 88 95 89 83 85 85 85 88 104 154 158 190 209 208 210 199 195 200 183 146 134 93 84 85 85 85 85 85 85 85 83 84 84 85 83 84 84 94 96 119 107 77 98 90 121 93 99 96 108 114 122 122 122 114 109 108 103 95 97 96 85 85 85 85 84 90 94 96 107 113 112 93 84 85 85 85 85 83 100 177 173 175 154 80 84 83 86 84 95 114
175 187 179 143 160 222 234 160 173 199 206 206 194 239 249 255 246 192 199 217 202 213 186 173 169 190 214 203 195 186 163 173 192 193 194 204 208 211 215 204 193 151 138 113 105 141 164 165 194 173 137 135 182 200 184 108 104 114 141 151 157 144 146 164 125 110 108 94 106 91 85 84 85 99 95 105 179 188 105 112 118 174 166 100 103 116 115 115 114 93 41 48 101 46 125 121 121 119 121 121 121 119 123 123 114 115 118 123 134 191 171 115 108 86 85 85 85 85 85 85 85 85 85 85 85 85 85 83 87 105 118 116 150 191 186 188 190 191 194 197 156 120 115 101 107 117 108 108 119 123 108 89 83 84 85 85 85 84 93 100 198 216 208 210 210 197 198 196 197 180 137 117 90 84 85 85 85 85 85 85 83 83 83 91 86 83 80 82 88 92 104 120 72 89 87 122 76 112 131 114 123 122 123 114 108 109 109 110 117 121 91 85 85 85 85 85 84 84 84 83 84 87 84 85 85 85 85 85 85 85 89 105 107 88 84 85 85 85 85 88 95
184 187 208 192 183 217 237 175 180 195 185 196 188 221 221 221 224 188 189 198 196 224 202 183 173 191 204 188 185 196 181 148 189 209 202 206 208 208 211 199 198 188 193 131 109 95 89 94 188 118 161 202 157 163 151 104 104 107 100 97 101 116 106 92 104 96 98 100 95 104 88 87 85 103 108 164 207 174 122 113 116 98 104 99 91 100 115 115 115 116 122 127 122 125 121 121 121 121 121 121 121 122 117 115 114 130 181 130 190 186 171 111 89 84 85 85 85 85 85 85 85 85 85 85 85 85 86 124 180 182 181 180 182 186 191 163 124 129 130 131 127 118 102 108 117 107 111 120 122 124 107 87 85 85 85 85 85 83 104 106 189 219 209 211 214 194 172 192 197 192 161 103 84 85 85 85 85 85 83 84 84 84 90 112 96 86 135 144 110 103 94 107 86 68 83 116 74 150 138 125 122 122 120 110 112 111 109 106 112 111 95 85 85 85 85 85 85 85 85 85 85 85 85 85 85 85 85 85 85 85 84 83 82 82 85 85 85 85 85 87 92
220 218 220 220 218 236 245 229 202 190 231 203 188 203 177 188 213 191 208 217 180 189 199 195 161 168 197 199 203 211 205 130 159 204 188 187 206 210 212 199 162 182 205 128 99 127 153 113 154 117 164 194 115 98 98 101 105 98 114 118 124 121 101 85 83 88 86 106 95 104 95 101 85 111 120 115 170 117 121 122 104 111 95 86 106 120 122 119 116 115 115 122 123 122 122 121 121 121 116 119 122 121 118 114 125 193 186 186 188 156 36 92 85 85 85 85 84 82 85 85 85 85 85 84 87 99 108 150 213 207 207 207 209 204 163 122 122 122 121 121 120 106 106 122 119 117 120 122 117 112 97 85 85 85 85 85 85 84 97 163 156 188 213 206 155 118 157 139 170 202 195 128 93 86 85 85 85 85 83 85 85 85 101 105 143 141 179 194 125 118 96 110 105 62 79 100 90 140 95 118 122 122 120 111 100 100 98 92 97 86 85 85 85 85 85 85 85 85 85 85 85 85 85 85 85 85 85 85 85 85 85 85 85 84 85 85 85 85 85 87 92
142 163 191 180 188 204 239 200 182 172 211 195 208 208 163 199 212 191 220 225 183 165 176 191 161 166 188 205 211 209 216 140 150 203 187 174 184 201 175 161 121 126 178 168 153 155 176 118 98 97 177 201 115 95 99 96 104 99 112 98 107 105 91 89 85 85 84 101 98 117 108 141 121 136 135 141 117 121 122 111 107 96 89 123 124 123 121 122 125 117 116 115 116 122 123 124 123 117 58 90 110 127 178 112 104 189 185 190 195 112 101 84 85 85 85 85 85 84 85 85 85 85 84 85 132 213 205 207 209 209 210 211 202 190 162 115 119 122 121 123 111 104 120 119 111 113 119 122 115 96 85 85 85 85 85 85 85 79 171 248 158 174 218 159 118 106 119 104 108 167 138 106 99 88 85 85 85 84 85 85 85 89 100 95 172 191 190 141 108 116 98 122 120 72 73 81 95 95 106 111 122 122 122 112 90 83 84 84 92 85 85 85 85 85 85 85 85 85 85 85 85 85 85 85 85 85 85 85 85 84 84 84 85 85 85 85 85 85 85 87 92
156 150 189 171 183 187 253 220 169 163 203 190 211 206 157 203 209 190 186 189 193 171 167 165 167 206 188 191 203 203 201 130 144 197 191 179 152 149 130 108 105 100 122 148 189 124 93 97 99 92 136 153 105 88 85 84 83 93 98 90 91 95 96 102 87 85 85 85 135 167 139 209 215 191 194 214 124 121 119 98 87 73 91 162 105 105 121 121 122 124 121 115 117 116 114 116 118 122 127 122 127 185 183 184 118 126 192 206 170 102 85 85 85 85 85 84 82 85 85 85 85 85 87 132 215 209 202 185 188 186 177 179 193 164 116 146 158 114 124 113 101 113 118 113 109 116 121 123 108 88 84 85 85 85 85 85 85 78 192 255 161 170 215 185 129 109 109 110 107 123 115 107 107 90 84 85 85 85 85 85 84 92 96 102 171 197 200 148 144 116 97 120 124 85 68 71 90 111 112 111 120 123 122 119 108 88 85 85 93 85 85 85 85 85 85 85 85 85 85 85 85 85 85 85 85 85 85 85 84 82 85 85 85 85 85 85 85 85 85 86 90
173 167 214 186 209 193 245 202 179 167 170 160 187 185 157 207 185 163 201 199 170 164 152 131 161 203 161 163 197 201 189 129 145 194 200 193 143 116 121 115 102 96 92 88 121 113 102 97 95 91 80 77 83 84 85 85 85 86 89 88 97 104 104 100 87 85 85 84 219 205 189 209 209 187 208 222 126 120 104 93 45 51 49 43 47 46 121 121 122 122 123 128 118 116 115 117 115 115 114 121 189 187 189 175 117 132 189 173 111 89 85 85 85 85 85 85 84 85 85 85 84 109 195 245 246 235 201 187 187 190 163 104 115 125 121 121 120 120 117 104 107 112 111 113 115 119 122 120 100 84 85 85 85 85 85 85 83 85 173 228 200 201 211 215 143 104 98 93 102 103 109 113 102 88 85 85 82 84 85 85 85 90 98 103 128 174 194 190 192 154 105 119 123 90 59 78 99 108 106 108 113 124 122 123 119 100 85 85 93 85 85 85 85 85 85 85 85 85 85 85 85 85 85 85 85 85 85 84 82 85 85 85 85 85 85 85 85 85 85 86 90
180 165 185 171 179 184 243 215 214 187 190 143 204 180 157 207 199 207 227 205 202 166 143 148 140 158 145 125 177 211 196 143 125 181 213 203 148 119 122 123 110 90 85 90 89 95 95 89 85 84 85 85 84 82 81 84 85 85 84 85 84 83 84 84 85 85 84 94 224 249 197 202 198 161 193 251 125 108 100 94 123 124 125 128 127 127 121 121 105 105 129 195 131 118 116 118 116 116 115 119 175 174 173 119 134 193 174 110 101 84 85 85 85 85 84 81 85 85 85 86 98 139 219 243 247 242 183 118 123 123 123 119 107 104 118 123 121 119 104 105 119 110 109 110 117 121 122 112 92 84 85 85 85 85 85 84 86 98 114 162 206 212 209 207 141 103 94 94 90 88 105 106 91 85 85 85 84 85 85 85 85 87 99 98 104 158 192 196 201 176 119 119 125 80 92 86 116 96 102 109 109 118 123 122 123 111 88 86 92 85 84 85 85 85 85 85 85 85 85 85 85 85 85 85 85 85 84 82 85 85 85 85 85 85 85 85 85 86 92 96 99
235 225 243 239 231 224 251 244 238 224 226 182 211 197 184 206 202 208 211 200 215 197 187 197 183 190 153 101 157 213 207 151 110 164 206 170 130 121 122 122 112 92 90 86 89 90 87 84 84 83 84 85 83 120 135 93 78 80 83 85 85 85 85 84 84 85 84 91 189 247 229 198 161 107 143 227 117 100 101 101 182 129 129 116 120 121 121 122 46 58 181 211 182 124 129 124 121 121 119 118 113 112 111 120 192 205 121 71 89 85 85 85 85 85 85 84 85 85 84 114 215 203 189 210 210 205 170 119 121 121 121 121 121 117 104 107 122 111 102 123 120 114 109 113 119 121 123 108 86 85 85 85 85 85 85 82 146 183 158 185 210 211 200 157 110 135 176 128 98 98 98 91 85 85 85 85 85 85 85 85 85 83 98 97 105 175 198 197 206 174 128 121 112 118 140 142 127 106 98 104 109 109 119 122 122 119 98 86 91 102 95 88 84 84 85 85 85 85 85 85 85 85 85 85 85 85 84 85 85 85 85 85 85 85 85 85 85 88 110 125 121
246 209 230 255 254 253 247 236 250 246 251 224 195 208 208 211 198 194 210 209 209 210 213 210 208 206 179 160 152 146 149 131 118 134 148 129 118 123 123 123 114 133 155 120 108 112 110 99 86 97 96 82 130 191 205 155 134 121 94 85 85 84 84 88 92 88 83 91 191 242 226 217 127 122 116 178 129 105 106 112 159 188 185 123 110 121 122 121 140 195 212 203 183 186 188 113 115 117 134 131 124 123 118 127 185 200 177 111 93 86 85 85 85 85 85 85 85 85 90 132 209 168 135 215 205 169 113 118 121 121 121 121 121 121 121 114 100 99 116 122 121 120 116 117 121 121 120 101 83 85 85 85 85 85 80 91 121 124 162 209 210 208 196 139 137 181 201 181 128 97 88 85 85 85 85 81 83 85 85 85 86 94 100 94 104 188 207 206 192 136 122 117 121 172 155 145 125 122 108 99 110 111 113 122 122 123 117 93 86 101 99 97 95 91 87 85 84 85 85 85 85 85 85 85 85 85 85 85 85 85 85 85 85 85 85 85 85 87 104 120 130
185 182 195 229 228 217 197 227 227 225 227 226 204 186 182 168 173 184 189 189 188 188 189 196 204 202 202 195 150 114 117 120 121 119 118 120 121 123 120 114 137 189 202 145 119 122 123 118 106 117 115 83 170 211 222 233 216 194 164 100 86 88 83 103 113 107 93 94 184 219 208 217 132 120 121 116 118 104 111 110 113 200 214 198 108 113 118 116 169 186 204 202 206 187 179 114 118 127 192 188 126 114 115 186 204 166 109 117 113 106 89 86 85 85 85 85 85 87 104 125 119 121 140 214 204 183 155 104 122 121 117 109 119 121 122 118 103 96 104 118 123 121 121 121 121 122 115 94 84 85 85 85 87 88 133 148 117 111 146 198 208 205 202 184 182 194 186 144 115 95 85 85 85 85 85 83 84 85 85 84 94 96 93 98 106 188 210 211 176 118 115 153 154 192 150 117 115 105 102 91 93 105 116 124 122 122 127 113 96 92 87 90 97 92 89 89 91 89 86 85 85 85 85 84 84 85 85 85 85 85 85 85 85 85 85 85 85 86 97 101 142
196 192 214 249 245 226 189 208 245 233 238 239 218 196 188 171 178 192 206 203 203 202 202 206 206 202 211 171 115 120 121 121 121 121 121 122 121 111 139 162 203 220 208 149 116 121 121 122 122 122 115 96 130 192 243 255 220 209 210 159 103 128 134 120 117 117 136 140 175 183 186 173 124 120 122 118 107 113 120 101 112 160 181 166 116 100 105 105 102 191 181 203 205 168 168 116 125 122 176 176 177 78 51 136 206 110 115 115 115 118 110 102 85 82 85 85 85 93 140 204 117 139 216 205 172 116 117 118 122 118 106 101 103 110 120 111 103 124 118 105 108 112 104 123 121 123 110 87 83 82 85 84 89 143 159 118 117 112 104 163 213 203 203 202 195 194 182 132 109 96 84 85 85 85 85 84 85 85 85 88 94 129 156 161 160 197 209 212 172 122 115 173 171 188 100 114 119 91 86 85 81 87 99 119 122 122 124 123 117 116 109 101 94 90 89 88 92 89 88 85 85 83 85 85 85 85 85 85 85 85 85 85 85 85 85 85 85 85 84 83 80
198 202 246 250 246 224 189 192 216 237 241 242 234 226 198 191 173 175 207 218 215 211 203 193 203 209 206 159 104 112 123 121 121 123 120 108 127 152 199 236 247 244 222 179 130 115 119 121 118 117 113 113 110 173 224 230 213 208 192 165 145 184 204 167 156 150 201 211 188 175 170 111 112 122 116 106 114 122 122 109 101 105 102 100 105 110 108 119 120 202 198 204 167 111 112 124 122 121 117 118 185 167 173 174 164 104 111 116 115 115 116 115 109 94 86 85 87 128 249 243 184 192 212 194 115 121 121 121 120 110 101 102 102 106 110 100 117 122 121 121 111 98 111 123 122 116 128 123 113 137 80 83 98 121 151 181 177 174 164 185 209 203 202 204 197 189 190 131 106 103 87 85 85 85 81 82 85 85 84 93 90 167 207 206 205 209 210 203 184 183 128 119 164 183 69 106 124 93 85 85 85 82 83 103 120 122 124 121 120 112 107 118 118 113 108 102 97 93 89 85 85 82 84 85 85 85 85 85 85 85 85 85 85 85 85 85 85 85 85 85 85
199 200 243 242 249 235 187 187 201 234 221 190 204 224 187 190 177 141 116 126 148 190 187 162 132 142 135 127 116 109 116 124 119 104 125 152 171 215 245 253 252 254 229 196 164 158 133 116 146 155 153 129 114 130 177 210 218 220 198 152 173 211 218 221 223 220 238 242 225 172 121 121 124 116 105 115 122 121 121 119 135 109 111 119 122 123 107 105 118 181 210 205 111 115 118 125 121 121 121 121 162 159 158 156 88 91 102 103 113 116 115 114 108 113 106 87 112 210 133 245 207 209 209 194 115 121 121 121 120 111 101 102 103 106 101 107 123 121 121 121 111 103 124 121 118 99 82 103 180 170 76 84 97 115 148 199 207 205 204 208 208 202 202 208 209 206 207 192 145 101 85 85 85 85 83 84 85 85 84 96 86 161 199 198 198 197 198 188 196 213 174 152 144 191 132 116 123 93 85 85 84 84 84 91 115 119 121 124 103 91 85 101 108 112 114 117 117 117 89 85 83 85 85 85 85 85 85 85 85 85 85 85 85 85 85 85 85 85 85 85 85
193 191 213 247 250 246 220 188 204 198 201 194 193 212 204 204 196 175 150 108 118 128 127 120 111 116 113 114 120 115 107 109 103 128 180 200 218 246 251 249 249 253 230 194 180 186 176 120 143 188 194 169 154 148 194 236 242 243 225 220 217 237 242 239 239 241 242 253 232 149 124 123 116 105 115 122 121 121 120 139 191 152 124 121 121 121 123 99 115 181 208 207 134 117 123 122 121 121 121 121 110 170 166 149 96 86 164 82 91 107 115 103 106 116 119 122 137 255 240 120 212 207 193 185 119 121 121 121 121 120 114 106 106 106 102 124 121 121 122 116 99 116 122 119 138 137 106 196 174 79 79 81 90 105 149 191 199 209 207 210 207 201 205 209 210 209 213 169 119 96 84 85 85 84 85 85 85 85 84 91 126 179 195 189 186 190 191 180 201 210 204 205 158 196 167 119 120 102 87 84 90 94 88 97 114 115 106 111 88 84 85 87 87 90 92 95 99 107 87 85 82 85 85 85 85 85 85 85 85 85 85 85 85 85 85 85 85 85 85 85 85
188 182 188 229 240 249 240 211 185 194 198 198 195 209 218 250 228 190 181 110 121 118 118 118 119 122 120 115 117 112 103 106 132 184 209 206 226 252 249 249 249 253 230 200 194 214 234 188 173 198 202 199 217 228 243 252 251 251 250 252 253 251 250 251 251 249 246 234 202 114 117 116 106 115 122 121 121 121 118 162 164 171 126 121 119 121 122 104 108 183 201 204 194 126 123 121 121 121 121 119 133 186 188 99 96 85 79 85 85 86 95 93 108 115 122 233 251 249 235 122 186 205 208 194 163 118 121 121 121 121 121 121 114 106 118 121 121 121 118 105 105 123 121 118 151 174 79 89 83 127 221 160 84 110 149 162 147 202 210 208 204 201 205 207 201 198 203 156 103 91 84 85 85 83 83 85 85 85 86 90 141 195 207 192 191 199 219 219 210 207 208 211 183 186 157 163 131 105 87 86 105 102 100 103 118 121 98 89 85 83 83 82 84 84 83 84 83 83 84 84 85 85 85 85 85 85 85 85 85 85 85 85 85 85 85 85 85 85 85 85 85
193 204 205 199 244 249 247 226 185 182 198 200 197 205 208 218 208 189 209 168 112 121 121 121 122 122 121 117 116 110 108 140 186 208 205 218 244 250 249 249 251 234 209 219 234 246 254 243 235 234 233 231 245 253 250 249 249 249 249 249 249 249 251 248 240 237 235 226 162 119 112 106 116 122 121 121 121 121 121 117 116 116 120 120 140 123 122 106 107 181 201 202 195 127 121 121 121 121 121 133 193 190 171 94 88 85 85 85 85 85 84 89 104 114 115 115 219 193 203 125 118 125 185 201 164 103 122 121 121 121 120 121 121 121 121 121 121 122 116 101 124 121 121 119 144 164 77 85 80 129 232 174 93 145 193 162 115 152 203 208 202 204 210 196 177 188 202 157 100 88 84 85 85 84 84 85 85 84 88 93 143 177 174 179 186 187 218 240 217 206 208 209 203 174 139 137 126 110 88 86 140 165 163 113 119 124 110 91 85 83 83 83 85 85 84 85 85 84 84 84 85 85 85 85 85 85 85 85 85 85 85 85 85 85 85 85 85 85 85 85 85
188 209 208 230 250 248 241 227 206 196 178 166 179 183 203 205 202 189 212 202 157 117 122 120 115 117 114 108 111 113 103 135 202 206 217 245 251 249 249 249 249 241 233 243 252 251 250 250 250 251 251 252 251 250 249 249 249 251 250 250 252 248 241 235 229 226 224 249 125 105 109 116 122 121 121 121 121 121 121 121 121 121 121 117 185 130 121 105 110 174 200 205 194 122 119 119 119 121 118 187 208 210 102 96 85 85 85 85 85 85 81 85 84 96 108 119 124 122 203 183 119 124 118 117 119 113 103 121 120 111 104 122 121 121 121 121 122 117 98 104 115 122 121 119 104 86 85 85 85 87 100 114 121 122 126 123 120 120 148 194 207 209 211 199 139 137 186 147 101 87 85 85 85 85 85 85 85 85 103 108 110 115 151 187 194 196 190 235 223 206 206 205 210 179 135 109 118 114 94 93 120 194 208 164 122 117 118 99 86 85 85 85 85 85 85 85 85 85 85 85 85 85 85 85 85 85 85 85 85 85 85 85 85 85 85 85 85 85 85 85 85
170 200 195 251 248 233 223 192 211 208 201 177 178 162 116 114 128 180 189 202 163 114 121 103 114 184 187 153 112 132 173 185 200 220 244 250 249 249 249 248 248 249 250 251 251 250 250 250 251 251 247 244 244 245 248 250 254 234 234 241 220 229 228 222 225 221 223 252 146 111 119 121 121 121 121 121 121 121 121 121 118 120 121 117 183 130 121 104 112 172 201 190 198 149 139 140 140 119 134 188 207 200 100 90 85 85 85 85 85 84 84 85 85 84 93 128 255 187 202 197 121 121 124 122 121 122 115 101 118 120 110 122 121 121 121 121 121 113 100 113 101 123 122 117 96 84 85 85 85 86 89 87 113 134 96 123 119 143 182 178 192 211 211 199 139 93 144 156 102 88 84 85 83 82 84 85 85 87 94 103 102 103 150 191 196 205 189 207 213 205 229 240 218 193 141 106 114 107 92 97 91 173 198 198 169 160 162 109 86 85 85 85 85 85 85 85 85 85 85 85 85 85 85 85 85 85 85 85 85 85 85 85 85 85 85 85 85 85 85 85 85
211 198 232 250 239 229 208 196 192 206 198 198 195 172 160 170 143 114 118 121 119 118 108 105 178 206 197 178 110 133 194 204 202 223 252 248 249 249 249 249 249 249 249 250 250 251 254 249 240 238 237 219 213 218 214 209 215 205 225 235 217 229 228 222 222 218 232 245 155 121 122 121 121 121 121 121 121 121 118 116 144 123 120 118 158 127 122 110 112 171 194 168 194 213 195 173 173 138 192 208 206 152 102 85 85 85 85 85 85 81 85 85 85 85 95 134 234 213 207 204 201 118 117 130 122 121 121 117 101 118 121 121 121 121 121 123 117 98 117 118 104 120 122 115 89 84 85 85 84 82 85 85 86 85 94 116 144 185 178 180 195 210 210 206 152 100 113 123 107 85 85 85 85 85 85 85 85 85 87 108 104 97 154 197 200 208 192 199 209 205 236 254 221 205 145 94 150 127 104 97 136 187 203 194 187 200 206 155 97 84 85 85 85 85 85 85 85 85 85 85 85 85 85 85 85 85 85 85 85 85 85 85 85 85 85 85 85 85 85 85 85
208 208 206 229 232 246 206 207 200 187 189 211 208 202 186 181 181 159 103 108 112 108 112 191 192 196 202 183 113 136 185 203 210 238 251 248 249 249 249 249 249 249 249 253 237 216 218 213 215 217 211 201 164 168 194 189 159 142 190 227 217 217 215 206 220 224 244 192 131 123 122 121 121 121 121 121 121 119 143 141 184 161 125 121 117 121 118 113 108 169 185 218 223 211 172 120 113 184 208 209 169 93 91 85 85 85 85 85 85 85 85 85 85 86 106 190 125 210 210 212 204 182 126 183 115 118 122 122 120 103 114 122 121 121 122 117 115 116 119 121 121 121 120 107 85 84 82 86 89 87 84 84 82 85 87 100 151 211 196 182 196 210 210 208 191 144 109 117 101 83 85 85 85 85 85 85 85 85 84 95 108 104 98 156 193 197 190 203 212 206 236 255 222 211 158 149 196 183 119 100 172 199 200 198 199 207 212 200 109 88 85 85 85 85 85 85 85 85 85 85 85 85 85 85 85 85 85 85 85 85 85 85 85 85 85 85 85 85 85 85 85
211 208 202 230 232 233 208 213 246 226 226 192 209 209 205 180 186 178 151 128 181 172 187 211 201 185 204 183 108 140 192 197 216 245 243 250 249 249 249 249 249 251 252 245 212 173 177 189 190 200 203 190 141 151 207 202 136 101 171 216 204 200 169 142 197 220 219 148 116 125 123 122 122 121 121 121 121 116 178 183 155 163 129 120 122 120 108 136 142 177 220 249 255 217 122 116 114 179 206 213 106 101 87 85 85 85 85 85 85 85 85 85 85 93 116 191 194 206 206 205 210 206 208 198 111 116 122 124 121 121 105 112 121 120 122 115 115 118 124 121 121 119 105 86 84 81 89 128 196 212 177 92 87 81 85 96 146 165 112 142 198 210 210 202 189 159 117 113 92 84 83 82 85 85 85 85 85 85 85 84 105 123 114 153 196 192 182 174 176 197 217 221 212 212 164 169 205 215 130 97 173 199 195 200 209 209 210 212 173 108 88 85 85 85 85 85 85 85 85 85 85 85 85 85 85 85 85 85 85 85 85 85 85 85 85 85 85 85 85 85 85
209 201 192 251 248 234 188 208 233 244 247 235 224 205 185 196 204 177 149 105 190 196 210 205 193 201 195 198 171 130 196 203 206 209 222 253 250 249 249 251 253 245 234 213 192 197 182 170 178 197 201 153 119 131 147 171 164 114 130 154 152 151 128 113 144 157 150 130 121 122 117 114 117 120 122 122 122 119 149 152 120 115 121 123 116 106 103 179 220 220 249 250 238 212 154 147 145 180 202 207 104 96 86 85 85 85 85 85 85 85 85 85 85 103 121 210 209 176 184 187 207 208 211 200 113 115 115 118 125 123 122 106 106 109 112 119 120 123 122 121 117 97 85 85 84 85 94 137 191 170 117 119 102 83 86 101 120 116 112 146 215 210 205 162 146 167 116 105 85 85 82 82 85 85 85 85 85 85 85 84 88 93 104 124 130 168 201 186 170 179 187 194 203 213 160 190 214 217 128 136 187 196 195 199 208 209 210 211 212 159 103 87 85 85 85 85 85 85 85 85 85 85 85 85 85 85 85 85 85 85 85 85 85 85 85 85 85 85 85 85 85
209 203 214 249 248 244 203 225 238 250 248 249 237 182 189 210 207 202 178 154 180 187 206 200 197 210 204 195 190 177 192 205 195 202 201 207 230 255 253 245 218 190 196 204 205 212 194 168 187 206 163 110 113 121 110 152 193 162 125 116 117 118 122 119 106 102 112 121 123 119 108 106 106 106 107 108 110 113 112 112 115 114 112 112 106 104 146 194 238 252 251 253 210 218 228 228 229 198 166 158 103 86 85 85 85 85 85 85 85 85 85 85 87 105 134 208 209 116 186 209 207 207 204 174 123 119 116 115 116 119 123 129 178 209 182 183 180 119 121 118 97 84 85 84 81 85 88 107 135 192 171 117 117 95 83 105 118 113 135 194 211 210 205 163 117 124 119 102 83 83 82 85 85 85 85 85 85 85 85 85 85 83 94 106 117 116 123 132 127 159 192 194 186 200 184 208 219 220 125 150 201 205 203 203 209 209 210 210 210 206 118 90 86 85 85 85 85 85 85 85 85 85 85 85 85 85 85 85 85 85 85 85 85 85 85 85 85 84 84 84 84
189 209 211 253 248 248 228 242 234 234 250 249 228 180 189 202 210 207 180 164 207 183 183 189 210 208 208 206 189 171 193 210 204 196 201 197 205 212 197 191 192 199 204 199 189 193 196 161 161 177 119 103 114 119 146 158 143 130 119 123 120 110 105 104 104 109 118 122 122 121 116 115 113 110 108 109 107 105 106 107 109 111 111 110 114 114 195 203 236 255 236 232 208 244 252 252 254 215 117 94 95 86 85 85 85 85 84 85 85 85 85 85 89 109 189 208 209 120 185 208 208 204 172 116 121 124 122 117 115 115 114 123 208 203 201 182 177 118 120 104 83 85 85 85 84 85 85 94 141 214 204 170 118 113 86 98 117 114 139 199 212 209 213 181 114 121 118 100 81 82 84 84 85 85 85 85 85 84 84 84 90 99 95 88 95 97 109 122 115 157 202 205 224 243 215 221 204 188 174 182 190 186 187 192 207 210 215 212 209 218 126 95 85 83 83 83 84 85 85 85 85 85 85 85 85 85 85 85 85 85 85 85 86 89 85 88 85 86 86 85 90
125 210 209 211 251 229 244 248 249 242 229 227 186 210 205 191 197 191 178 187 210 204 187 222 227 207 208 209 199 174 193 202 191 202 211 235 234 208 182 200 206 208 209 206 197 164 134 129 126 131 113 106 112 121 133 133 118 116 114 110 102 103 109 112 116 122 124 122 122 123 123 122 122 122 122 121 114 105 99 111 117 122 124 125 119 140 191 203 218 233 208 218 205 242 250 249 252 209 111 95 87 85 85 85 85 85 82 85 85 85 85 85 90 115 188 209 206 134 186 204 204 172 116 121 121 121 122 125 120 116 115 118 175 204 204 200 115 121 117 89 85 85 85 85 85 85 85 110 197 209 208 204 171 111 98 104 105 108 118 140 199 210 212 182 115 122 117 102 90 93 98 96 91 86 84 84 86 96 98 93 104 107 107 96 92 97 111 122 150 189 208 212 242 255 219 201 199 199 201 201 203 200 199 200 215 206 155 188 205 210 138 113 107 105 105 104 95 86 85 84 84 85 85 85 85 85 85 85 85 85 85 85 94 93 126 95 123 143 143 139 93
162 202 209 209 205 246 249 246 207 210 191 183 202 209 207 207 190 184 208 206 206 188 194 239 221 223 209 208 207 203 194 189 206 202 203 240 237 226 190 208 209 209 209 210 203 158 114 120 120 120 118 106 110 122 120 122 120 107 99 105 112 116 121 122 119 120 123 122 123 123 117 117 122 123 123 119 114 112 109 119 123 122 122 120 142 180 200 203 197 197 219 250 230 241 247 251 254 213 125 96 86 85 85 85 85 84 84 85 85 85 85 85 94 121 217 211 171 189 172 170 171 117 121 121 121 121 121 121 124 125 122 115 115 194 198 177 121 120 102 85 86 86 85 85 85 85 86 120 214 208 208 204 171 116 122 123 115 115 115 119 146 215 212 182 110 115 110 100 97 94 136 187 189 145 84 87 98 143 196 163 105 73 80 101 95 101 112 127 124 171 207 181 165 185 153 167 206 208 215 206 205 205 198 182 142 152 134 113 102 103 85 77 76 78 76 89 106 88 85 83 91 85 84 85 85 85 85 85 85 85 85 84 99 96 182 112 177 204 227 227 171
222 201 210 208 210 250 251 246 207 191 185 208 188 207 250 234 179 195 189 207 189 206 241 229 238 213 189 212 207 198 190 195 201 244 214 173 111 152 213 210 207 192 194 194 201 172 112 121 121 121 122 107 103 124 118 105 98 104 112 118 122 121 121 115 142 139 115 120 124 112 105 113 121 123 123 121 120 122 123 122 123 123 123 118 173 183 195 205 197 199 245 254 247 225 218 228 238 174 117 88 85 85 85 85 85 82 85 85 85 85 85 84 104 116 249 208 118 186 118 116 116 121 121 121 121 121 121 121 121 122 125 116 115 122 180 176 113 121 113 107 104 100 94 88 86 86 88 123 189 208 208 210 192 116 120 141 208 192 161 186 212 209 211 182 104 110 115 119 133 173 185 206 228 202 205 168 111 149 204 214 192 110 77 117 116 117 121 118 71 112 185 193 153 172 213 229 247 209 165 159 143 165 143 152 171 184 148 66 70 88 87 90 89 67 74 88 108 99 100 151 123 109 92 85 85 85 85 85 85 85 85 85 93 98 144 125 150 206 250 253 255
229 227 197 203 210 250 248 210 188 185 212 249 246 225 228 219 197 199 198 185 200 213 250 241 229 239 212 196 197 193 214 248 236 226 192 128 227 186 156 219 127 131 132 130 159 203 152 117 121 121 122 117 109 104 95 101 111 115 115 120 112 105 113 150 197 195 176 142 120 116 114 119 121 122 122 122 122 122 123 123 123 123 124 116 165 191 200 199 186 201 227 229 225 210 198 192 202 133 97 86 85 85 85 85 84 84 85 85 85 85 85 84 112 134 235 190 122 169 123 121 121 121 121 121 121 121 121 121 121 123 121 115 118 190 182 176 114 115 116 117 118 119 115 104 108 106 102 121 127 192 208 207 205 175 118 134 187 203 203 197 201 209 205 164 104 104 103 120 145 213 228 246 249 233 210 178 115 138 175 187 182 111 62 98 95 100 115 97 43 46 115 158 131 134 179 200 241 215 166 172 164 176 153 135 145 147 138 63 96 88 97 116 105 62 96 109 102 148 171 153 128 113 91 85 85 85 85 85 85 85 85 85 87 95 96 114 114 192 246 249 249
250 240 225 238 251 249 248 202 187 209 210 250 248 244 221 235 206 200 189 199 213 250 248 247 240 234 226 180 198 216 243 212 226 223 196 138 255 199 142 223 114 119 116 117 148 212 167 116 121 122 121 108 94 95 108 117 111 101 107 109 101 110 114 169 224 222 182 130 121 123 123 123 123 124 124 124 124 124 124 124 123 121 119 144 177 194 193 186 185 204 208 198 176 167 194 196 163 122 91 85 85 85 85 85 82 85 85 85 85 85 85 89 142 194 207 191 122 116 121 121 121 121 121 121 121 121 121 121 121 124 115 115 119 189 190 181 115 116 115 115 115 115 115 116 116 117 118 118 132 190 188 208 208 205 187 183 179 186 210 190 188 206 201 161 101 110 116 118 144 227 251 248 251 239 176 118 125 100 104 167 152 105 99 107 64 75 104 151 87 32 148 175 153 171 173 209 247 187 134 137 142 153 84 46 55 59 112 68 100 111 64 83 63 82 112 104 160 205 160 124 115 94 85 85 85 85 85 85 85 85 85 85 85 87 94 101 117 142 244 250 249
249 250 230 250 251 250 208 209 208 210 209 208 208 183 234 226 206 193 198 209 208 215 251 249 248 237 241 181 191 211 201 180 195 251 211 134 255 220 140 227 108 140 164 112 143 182 124 120 121 114 97 92 104 117 118 107 100 109 107 101 111 120 120 133 151 151 133 119 123 125 123 123 122 123 123 120 116 113 109 107 104 105 113 175 164 140 172 192 188 205 212 199 136 109 169 192 129 96 86 85 85 85 85 85 85 85 85 85 85 85 84 97 207 212 203 190 142 122 121 119 119 121 121 121 121 121 121 121 124 119 116 115 124 179 197 197 131 110 110 113 116 116 115 114 114 115 115 114 122 181 182 190 211 209 211 206 203 204 210 199 196 204 191 176 147 106 116 138 196 208 222 239 207 205 164 116 119 143 196 214 180 131 152 180 151 109 153 181 131 65 110 158 174 212 189 194 241 218 171 152 160 164 128 148 84 80 129 68 91 118 100 50 36 102 114 147 202 208 138 115 98 86 85 85 85 85 85 85 85 85 85 85 85 84 88 95 115 112 221 252 252
247 247 230 250 249 250 210 209 209 208 211 210 180 190 252 247 221 192 210 209 212 217 255 254 255 249 213 253 240 232 188 190 210 216 196 106 132 129 123 128 113 140 202 173 162 127 124 128 122 111 104 114 120 122 111 99 109 107 99 105 115 123 121 120 118 117 115 120 124 124 122 121 121 121 122 115 106 105 106 107 108 111 117 142 125 107 138 154 178 196 201 165 126 112 173 154 112 87 84 85 85 85 85 84 85 85 85 85 85 85 83 139 206 211 188 185 195 126 120 139 139 122 121 121 121 121 121 122 124 115 115 118 124 118 207 190 190 99 84 91 95 99 103 100 100 117 116 115 115 111 119 180 199 206 207 206 205 208 210 206 211 208 199 190 190 116 120 136 195 209 207 208 211 181 115 118 141 195 211 210 166 157 175 161 173 105 156 170 131 161 185 159 168 217 205 194 237 222 180 143 149 147 154 208 108 89 130 66 86 116 67 64 69 61 97 170 201 155 124 101 87 85 85 85 85 85 85 85 85 85 85 85 85 85 86 97 105 113 148 213 229
221 223 236 249 249 249 245 210 208 184 185 193 181 211 210 240 232 222 201 210 205 172 182 183 180 141 140 148 182 219 200 190 210 206 181 196 246 218 114 115 137 178 165 203 139 105 114 62 67 99 124 122 121 108 99 111 108 101 114 107 99 115 122 121 119 146 176 143 118 122 121 121 121 121 121 118 115 116 118 120 122 124 124 115 113 116 119 115 167 187 188 125 95 144 148 114 90 85 85 85 85 85 85 85 85 85 85 85 85 82 125 209 206 204 189 186 169 124 119 167 194 125 121 121 121 121 121 124 116 115 116 125 121 121 206 194 196 131 101 83 84 84 84 84 90 100 114 136 125 116 116 116 117 180 203 202 204 204 190 211 210 209 201 199 186 114 118 134 197 208 207 208 208 203 163 112 140 199 217 179 156 243 215 153 141 118 114 137 163 166 217 171 184 248 203 207 251 241 189 154 156 150 166 202 105 85 125 65 80 66 66 107 114 69 120 186 156 123 115 92 84 85 85 85 85 85 85 85 85 85 85 85 85 85 86 98 104 111 105 130 174
244 226 229 249 249 248 229 198 211 120 121 122 210 211 199 192 211 243 180 210 203 184 253 224 173 213 209 199 202 212 206 190 190 189 182 201 198 123 140 169 99 133 175 125 44 56 87 103 109 119 126 119 107 101 113 121 112 100 114 117 108 115 122 121 122 130 168 189 143 115 121 121 121 121 121 121 122 122 121 121 121 123 122 117 114 118 123 120 165 199 195 133 123 145 112 97 88 85 85 85 85 85 85 85 85 85 85 85 85 82 199 210 167 158 184 189 123 120 121 114 165 125 121 121 121 121 123 121 115 115 123 122 121 121 171 209 189 210 186 101 85 85 85 85 84 84 109 255 183 119 130 185 117 127 206 192 173 175 179 184 206 210 207 209 189 115 118 130 194 212 218 252 237 205 207 199 192 212 175 150 228 255 238 180 102 85 124 163 183 162 211 184 207 253 203 212 252 202 193 210 190 145 175 173 70 84 123 65 68 76 84 98 97 128 157 175 139 120 113 89 83 85 85 85 85 85 85 85 85 85 85 85 85 85 88 96 115 118 112 103 169
229 246 222 244 240 230 220 202 208 126 122 122 208 209 192 209 208 208 202 192 212 227 185 127 133 148 145 149 185 204 203 148 191 191 181 151 140 218 86 199 124 156 65 120 73 93 119 130 131 128 121 104 101 115 121 122 119 110 109 122 120 120 121 123 124 120 125 165 186 141 115 121 121 121 121 121 121 121 121 121 122 123 119 115 115 120 124 119 166 201 202 137 168 121 97 91 85 85 85 85 85 85 85 85 85 85 85 85 78 94 193 171 121 135 180 189 128 120 121 121 115 117 118 121 121 121 124 116 115 119 124 121 121 119 115 207 205 199 211 184 88 85 85 85 84 86 112 254 207 132 140 204 186 193 191 108 112 121 186 203 200 201 202 199 165 111 115 133 194 211 222 255 243 208 210 208 207 179 153 240 240 208 211 207 139 55 89 158 170 162 196 198 245 250 208 189 233 249 211 174 163 166 195 198 138 163 200 91 50 71 72 74 71 123 160 159 135 121 120 108 92 85 85 85 85 85 85 85 85 85 87 85 85 83 89 96 116 115 153 162 169
236 240 225 222 225 239 200 207 207 188 123 123 184 208 208 209 211 208 208 203 203 211 192 142 199 162 198 200 210 212 201 135 205 117 104 152 113 112 57 132 117 72 71 55 47 57 69 51 47 91 117 103 117 121 121 121 121 120 119 121 121 121 120 115 116 122 119 149 192 183 147 118 121 121 121 121 121 121 121 122 123 121 117 114 118 123 124 121 139 152 151 155 154 114 93 87 85 85 85 83 84 85 85 85 85 85 85 80 137 122 152 121 113 181 187 191 129 120 121 121 111 100 126 116 120 123 121 115 116 125 122 121 121 134 133 206 209 224 208 173 107 86 85 85 81 85 96 228 230 241 232 110 123 178 112 118 118 126 185 200 180 203 203 200 167 111 116 128 186 201 211 246 234 201 219 241 209 212 223 255 241 207 209 204 161 111 119 148 200 204 223 254 254 236 201 190 207 215 209 208 206 209 211 209 205 210 207 144 108 107 109 109 112 116 176 197 142 121 123 115 104 93 86 85 85 85 85 85 85 84 90 100 110 106 108 106 141 157 201 176 153
233 182 216 241 249 247 207 206 207 209 122 122 123 185 208 209 209 210 208 209 205 201 138 159 168 124 178 176 234 212 204 133 200 113 95 148 210 185 106 111 74 38 99 111 72 93 119 97 52 116 118 119 121 121 121 121 121 121 121 121 121 117 141 184 147 116 121 148 192 167 129 120 121 121 121 121 121 121 121 123 123 119 112 111 115 120 122 122 120 120 111 170 136 98 91 85 85 85 85 83 84 85 85 85 85 85 85 77 197 139 137 147 145 179 187 167 126 120 121 115 99 122 174 135 122 124 116 115 119 122 121 121 119 193 197 207 209 187 204 115 134 95 85 85 80 85 85 96 114 113 114 120 119 118 120 115 116 125 128 185 192 214 212 206 172 124 192 188 121 187 212 246 232 209 245 243 231 210 248 232 202 206 208 211 204 158 112 149 200 203 206 212 228 237 191 171 188 197 196 202 203 201 204 209 211 215 206 153 120 121 121 105 110 158 188 197 149 108 96 91 90 87 85 85 85 85 85 85 85 85 86 95 117 122 121 116 165 191 181 153 181
251 210 188 216 237 209 185 179 201 204 123 121 120 187 209 209 209 208 212 209 212 209 168 139 146 99 173 177 187 214 205 135 197 118 96 149 217 200 137 168 102 79 82 59 39 51 83 110 56 127 121 121 121 121 121 121 121 121 121 121 119 143 197 207 197 147 98 145 197 161 115 121 121 121 121 121 121 121 122 123 121 114 137 161 162 165 135 118 123 120 139 177 131 93 87 85 85 85 83 84 85 85 85 85 85 85 84 86 164 164 184 192 200 187 192 127 119 121 122 102 98 181 200 165 126 120 115 115 125 121 121 121 118 203 188 203 207 196 203 136 191 107 85 85 79 85 85 91 121 121 121 138 137 133 123 114 117 125 122 133 213 210 208 205 186 185 208 211 209 210 213 251 245 244 242 243 242 242 242 243 231 199 202 202 203 196 155 109 150 213 209 210 230 241 193 176 194 201 195 199 203 202 205 210 204 160 128 125 121 121 119 100 110 127 172 159 113 92 85 84 85 85 85 85 85 85 85 85 85 85 85 85 99 118 122 117 174 179 150 176 201
247 194 119 161 183 205 189 121 117 117 121 121 119 184 210 213 209 208 185 185 207 161 161 136 74 100 172 171 163 191 179 51 187 115 91 86 204 207 141 171 116 82 95 118 80 95 123 106 57 130 122 121 121 121 121 121 121 121 121 120 114 146 226 231 196 174 144 156 154 125 120 121 121 121 121 121 121 122 123 121 118 110 151 190 199 208 182 136 121 120 134 132 106 89 85 85 85 83 82 84 85 85 85 85 85 85 82 97 168 212 193 180 208 196 166 127 120 121 123 95 134 182 168 120 115 115 115 117 122 121 121 121 119 166 115 163 206 193 198 176 172 114 85 85 85 85 85 87 117 120 140 255 253 216 181 123 120 122 129 193 189 210 207 207 205 184 204 255 245 206 216 252 251 252 252 253 252 250 249 246 244 244 231 199 203 197 157 106 144 208 200 215 244 244 225 199 205 199 186 200 211 208 210 199 192 156 117 120 121 125 112 95 111 122 127 127 103 86 85 85 85 85 85 85 85 85 85 85 85 85 85 84 90 115 122 113 172 155 174 202 204
209 216 139 117 114 173 181 122 125 126 127 126 127 206 208 209 208 208 184 122 187 176 175 87 85 104 181 176 182 196 180 35 46 40 35 32 55 114 96 119 117 82 83 62 37 47 72 113 54 130 122 121 121 121 121 121 121 121 119 136 183 207 250 229 158 115 146 184 143 104 123 121 121 121 121 121 121 122 123 119 115 111 153 192 200 211 211 156 113 118 112 99 90 86 85 85 85 83 84 85 85 85 85 85 85 81 118 146 187 210 194 166 186 165 125 120 121 119 122 98 180 194 125 118 102 113 116 120 122 122 121 121 121 116 120 129 206 190 185 118 116 117 85 85 85 85 85 87 134 130 214 235 235 237 207 209 132 119 127 184 211 214 211 212 208 185 199 251 248 250 249 248 249 249 249 249 249 247 243 244 246 251 240 209 210 209 199 157 138 206 215 244 242 244 227 200 203 195 148 140 199 213 217 206 159 123 125 126 121 107 94 104 120 122 120 123 102 84 85 85 85 85 85 85 85 85 85 85 85 85 85 85 85 114 119 157 159 171 185 191 205
205 248 226 144 131 119 106 93 155 175 209 213 253 212 208 206 185 185 122 187 209 209 209 125 123 138 207 212 212 200 207 120 127 178 113 123 123 119 68 121 117 86 85 109 119 118 94 44 68 127 123 122 121 121 121 122 122 121 118 141 223 249 248 222 150 98 124 136 116 97 119 121 121 121 121 121 121 123 121 115 114 116 129 168 204 211 215 187 160 164 124 93 89 85 85 85 84 85 85 85 85 83 84 85 85 79 156 200 210 202 191 176 144 105 105 117 120 109 114 113 152 164 127 122 111 115 111 117 114 115 118 121 122 122 116 192 208 198 181 121 121 111 85 85 85 85 85 111 210 201 191 243 243 239 238 244 215 129 122 124 215 254 250 251 244 183 199 251 248 248 248 249 249 249 249 249 246 235 237 236 236 237 226 197 210 204 194 204 191 204 220 255 250 251 227 194 204 202 192 147 145 162 118 126 128 116 102 97 95 95 109 121 122 122 123 121 98 83 85 85 85 85 85 85 85 85 85 85 85 85 85 85 83 105 124 102 134 181 142 131 195
206 244 250 255 226 127 87 85 94 99 204 248 249 251 210 185 186 119 122 189 207 186 183 124 125 184 205 209 199 172 189 190 212 208 166 120 124 125 124 123 110 121 117 125 123 125 124 119 118 120 116 123 123 121 118 104 103 118 132 188 220 255 240 194 153 98 101 114 139 144 100 123 121 121 121 121 122 122 117 114 117 121 121 127 171 196 191 194 193 194 166 108 83 85 85 85 85 85 85 85 85 84 84 85 81 122 186 211 202 188 185 196 133 107 95 127 145 115 112 114 110 113 115 145 120 116 101 95 92 94 99 106 111 116 138 201 204 198 179 140 122 110 86 85 85 85 87 171 176 239 245 205 207 201 238 232 238 206 117 126 214 252 248 248 243 184 197 251 248 249 249 249 249 249 249 249 246 232 235 238 236 236 237 228 203 204 186 180 169 186 210 253 248 251 224 173 196 215 205 157 112 117 114 115 115 117 117 115 118 120 121 123 120 110 100 94 87 85 85 85 85 85 85 85 85 85 85 84 84 85 85 85 84 98 101 65 110 135 117 110 189
203 239 248 248 255 126 86 86 204 213 248 250 249 246 210 186 174 108 119 181 184 184 121 122 118 187 200 189 193 114 122 187 185 183 107 97 111 118 124 122 103 118 112 112 121 106 114 113 123 115 115 117 123 122 118 121 159 169 194 216 248 254 231 150 113 101 94 104 128 127 113 122 121 121 121 122 124 120 115 114 114 120 123 118 118 157 190 164 134 157 177 120 80 85 83 84 85 85 85 85 85 85 85 83 84 148 201 213 193 185 191 165 129 123 112 163 174 120 112 113 109 109 138 188 125 111 106 85 84 84 83 82 84 103 165 165 164 183 189 199 123 110 86 85 85 85 92 132 133 198 205 210 204 201 200 210 228 187 111 124 213 246 244 249 244 188 202 251 248 249 249 249 249 249 249 249 245 231 234 237 236 235 235 238 233 202 191 199 207 193 205 253 248 252 219 151 182 205 187 163 119 124 120 115 115 115 115 116 119 123 125 109 90 87 86 85 85 85 85 85 85 85 85 85 85 85 83 101 97 86 85 85 83 100 74 86 116 120 119 114 188
181 188 236 244 250 139 90 81 171 204 241 244 246 209 206 187 185 101 120 119 117 120 123 122 124 186 211 200 185 121 121 120 121 121 122 112 103 156 92 102 97 112 167 96 98 99 95 106 123 120 115 115 118 122 133 185 198 226 238 216 255 253 225 140 113 113 102 103 120 120 121 121 121 121 122 122 119 116 115 140 176 147 111 138 164 172 190 153 103 106 114 95 84 85 84 84 85 85 85 85 85 85 84 86 98 151 178 184 184 188 165 126 119 121 120 147 177 114 96 103 108 133 194 165 142 152 112 87 83 85 85 85 83 110 116 116 110 187 188 211 146 111 86 85 85 85 102 173 194 208 209 206 201 201 205 210 207 210 190 124 208 206 208 245 247 227 237 249 248 249 249 249 249 249 249 248 246 231 234 238 227 191 204 230 196 207 187 174 208 206 237 250 248 251 220 151 179 213 199 185 159 114 120 121 119 115 113 114 113 117 119 110 91 84 84 85 85 85 85 85 85 85 85 85 85 85 83 102 115 96 84 84 89 81 70 85 101 116 122 111 186
113 110 178 192 196 129 90 85 75 170 193 203 203 199 179 179 181 164 116 119 101 87 112 127 188 209 208 208 189 187 122 121 121 121 121 122 122 123 122 117 105 111 168 96 95 117 110 93 99 112 122 116 115 112 127 200 226 246 242 204 212 251 228 178 162 116 119 119 121 121 121 121 121 122 123 118 115 115 115 150 196 180 168 177 182 184 207 160 97 91 83 83 85 85 85 85 85 85 85 85 85 85 79 129 161 177 179 162 159 179 135 117 121 121 122 116 150 121 95 96 98 175 217 122 166 213 114 85 81 84 85 87 98 117 121 120 136 205 190 208 176 115 86 85 85 89 122 117 113 202 191 167 198 202 210 208 208 207 184 123 177 210 208 207 243 219 230 244 244 249 248 249 249 249 248 248 246 231 234 231 194 198 197 195 197 200 197 190 218 239 232 250 248 251 223 154 179 213 207 206 206 204 205 196 181 186 155 140 153 111 115 116 113 104 92 84 85 85 85 85 85 85 85 85 85 85 84 90 110 111 95 85 93 71 78 87 85 96 109 150 199
99 116 116 114 112 93 85 85 85 83 109 170 187 121 114 113 151 156 93 85 90 94 111 187 212 209 208 196 211 210 186 121 122 123 122 121 121 121 121 120 101 106 123 121 110 99 122 110 109 116 96 113 121 180 202 243 248 250 242 205 195 191 198 194 170 116 121 121 121 121 121 123 125 123 117 115 115 117 111 141 195 185 187 188 181 185 198 149 91 88 84 85 83 83 85 85 85 85 85 85 81 75 120 151 176 191 180 172 162 134 111 117 124 119 115 118 120 106 102 112 104 184 217 154 169 204 108 84 79 80 84 89 120 122 121 114 180 208 190 211 121 117 88 85 85 91 120 121 120 168 118 109 162 204 211 208 208 207 184 120 120 209 208 208 205 181 194 206 208 245 248 248 248 248 248 248 246 231 234 237 237 238 231 195 196 200 200 190 217 239 231 250 249 239 192 157 179 214 208 208 208 208 207 210 202 184 186 190 162 114 115 115 115 116 113 102 89 83 85 85 85 85 85 85 85 85 84 87 148 145 108 96 77 70 82 86 87 100 149 194 209
84 94 113 109 91 85 85 85 85 90 118 112 184 130 95 87 87 103 88 81 171 231 247 213 207 208 210 250 252 250 186 121 187 208 184 120 121 121 121 120 104 99 122 121 121 103 102 124 116 97 105 127 191 207 243 245 248 251 250 240 202 189 185 202 173 116 121 121 121 122 123 118 117 116 115 115 116 138 172 153 151 199 200 185 196 201 158 105 91 88 86 83 82 84 85 85 85 85 85 81 119 159 184 141 155 184 178 178 180 126 92 101 106 111 110 112 111 98 104 120 118 183 204 196 179 205 108 80 115 117 85 82 112 121 116 146 187 208 189 210 148 121 103 87 84 91 120 121 121 119 116 115 112 171 188 210 209 208 190 138 121 175 204 207 205 184 195 203 202 203 249 248 248 249 249 249 247 231 234 237 236 236 237 231 195 199 201 186 191 193 232 251 238 206 197 158 174 209 208 208 208 209 200 185 188 186 187 191 161 111 112 115 115 115 115 116 112 102 89 83 85 85 85 85 85 85 80 134 188 148 114 99 69 79 88 84 89 149 199 208 210
